ply
format ascii 1.0
element face 0
property list uchar int vertex_indices
element vertex 587
property float x
property float y
property float z
property uchar diffuse_red
property uchar diffuse_green
property uchar diffuse_blue
end_header
2.205036e+00 -8.639733e-01 -6.205369e+00 177 153 53
2.210512e+00 -7.634108e-01 -6.232305e+00 215 190 72
1.906004e+00 -1.145560e+00 -6.794634e+00 204 181 69
2.197751e+00 -8.019237e-01 -6.233730e+00 216 192 82
1.912175e+00 -1.108283e+00 -6.808663e+00 40 28 0
-6.169268e-01 2.158940e+00 -9.858223e+00 29 26 27
-3.275984e+00 3.613135e+00 -1.172543e+01 133 53 23
-3.176832e+00 3.541037e+00 -1.159273e+01 141 75 64
-4.431276e+00 3.690573e+00 -1.141954e+01 132 77 67
-5.190683e+00 3.720775e+00 -1.120900e+01 115 40 24
2.302496e+00 -1.291401e+00 -5.958004e+00 212 157 54
2.302496e+00 -1.291401e+00 -5.958004e+00 212 157 54
-1.483344e+00 3.184001e+00 -1.095353e+01 66 18 8
-1.782224e+00 3.279635e+00 -1.099558e+01 97 45 18
-1.464840e+00 3.108424e+00 -1.109861e+01 72 24 13
2.360829e+00 1.647445e+00 -5.543203e+00 194 169 114
-1.853926e+00 3.271651e+00 -1.110484e+01 28 14 15
-1.817468e+00 3.164058e+00 -1.120468e+01 29 15 12
-1.773134e+00 3.162321e+00 -1.142725e+01 94 45 21
2.527021e+00 -4.689865e-01 -5.415595e+00 225 182 186
2.527021e+00 -4.689865e-01 -5.415595e+00 225 182 186
2.171319e+00 -8.226036e-01 -6.336925e+00 220 192 75
2.373984e+00 1.702465e+00 -5.542808e+00 192 142 49
2.526116e+00 -4.037698e-01 -5.417994e+00 234 182 181
2.484789e+00 1.046663e+00 -5.443604e+00 214 183 107
1.912175e+00 -1.108283e+00 -6.808663e+00 40 28 0
2.215000e+00 -6.830551e-01 -6.192591e+00 215 189 74
2.188745e+00 -8.765589e-01 -6.251676e+00 221 196 81
2.188745e+00 -8.765589e-01 -6.251676e+00 221 196 81
2.137151e+00 -9.311965e-01 -6.335103e+00 213 187 80
-1.336712e+00 3.093318e+00 -1.115714e+01 44 11 9
-9.429036e-01 5.133097e-01 -4.579276e+00 255 254 254
2.161208e+00 -1.068478e+00 -6.385453e+00 213 188 63
3.477944e-01 3.292027e+00 -1.026333e+01 14 14 13
-1.338541e+00 3.059625e+00 -1.125667e+01 66 29 12
6.490345e-01 1.775759e+00 -5.776471e+00 162 20 29
2.408747e+00 1.800087e+00 -5.509744e+00 192 163 77
2.480316e+00 1.361301e+00 -5.490571e+00 204 175 103
5.064651e-01 1.117859e+00 -5.568624e+00 145 33 57
-7.538439e-01 7.997952e-01 -4.569730e+00 221 159 171
5.452355e-01 1.020758e+00 -5.543222e+00 209 138 156
1.567467e+00 1.091259e+00 -5.219986e+00 159 96 109
-8.886368e-01 6.652921e-01 -4.553984e+00 236 199 216
-1.308033e-01 6.054921e-01 -5.347576e+00 209 177 194
5.556197e-02 6.155168e-01 -5.351520e+00 237 225 237
2.472879e+00 7.011871e-01 -5.528344e+00 216 181 106
6.304344e-01 -3.872785e-01 -5.552897e+00 188 26 46
6.304344e-01 -3.872785e-01 -5.552897e+00 188 26 46
2.541366e+00 -3.047211e-01 -5.315397e+00 216 77 126
2.197751e+00 -8.019237e-01 -6.233730e+00 216 192 82
2.014313e+00 -2.046400e+00 -1.156496e+01 62 50 54
1.901228e+00 -2.382923e+00 -1.199451e+01 97 86 100
2.081366e+00 -2.200605e+00 -1.127167e+01 106 93 111
1.256764e+00 -3.031296e+00 -1.383025e+01 74 67 78
2.340704e+00 -1.132176e+00 -5.909457e+00 197 196 105
2.329435e+00 -2.506378e+00 -1.098859e+01 75 68 81
2.486370e+00 -2.548424e+00 -1.034475e+01 106 99 115
2.486370e+00 -2.548424e+00 -1.034475e+01 106 99 115
1.228624e+00 -3.682661e+00 -1.408223e+01 40 33 39
1.839137e+00 -3.195925e+00 -1.221704e+01 76 72 86
2.420477e+00 -2.689058e+00 -1.058118e+01 73 58 66
1.962621e+00 -3.066971e+00 -1.175377e+01 89 85 100
1.964255e+00 -3.148323e+00 -1.179498e+01 56 49 62
2.431990e+00 -2.899751e+00 -1.045738e+01 57 46 59
1.959707e+00 -3.487130e+00 -1.182130e+01 52 47 69
2.286367e+00 -3.234764e+00 -1.086431e+01 87 83 99
2.137319e+00 -3.407530e+00 -1.131989e+01 88 81 96
2.505274e+00 -3.152770e+00 -1.033058e+01 69 59 74
2.527494e+00 -3.115801e+00 -1.023623e+01 117 106 126
2.346672e+00 -3.280071e+00 -1.068033e+01 53 46 61
2.674493e+00 -3.018115e+00 -9.842381e+00 78 70 91
2.372360e+00 -3.482558e+00 -1.075588e+01 99 95 118
2.421876e+00 -3.402246e+00 -1.054807e+01 106 98 119
2.506640e+00 -3.446712e+00 -1.032678e+01 115 112 131
2.410822e+00 -3.598568e+00 -1.055155e+01 99 95 113
2.730303e+00 -3.302491e+00 -9.719501e+00 112 106 124
2.178485e+00 -3.913919e+00 -1.114517e+01 50 45 58
2.121746e+00 1.969100e+00 -6.219617e+00 116 75 22
2.290112e+00 1.803715e+00 -5.988936e+00 191 165 111
5.458032e-01 1.430495e+00 -5.838172e+00 59 0 0
2.392129e+00 1.558796e+00 -5.578117e+00 200 170 99
2.430278e+00 1.535986e+00 -5.549233e+00 198 171 90
4.202003e-01 1.084939e+00 -5.535167e+00 156 20 54
-1.100630e+00 7.212486e-01 -4.538859e+00 204 140 157
-6.077302e-03 9.430721e-01 -5.568902e+00 102 2 5
3.638811e-01 9.723845e-01 -5.526979e+00 197 134 154
-1.021926e+00 6.746710e-01 -4.561066e+00 232 173 197
-9.266041e-01 6.756088e-01 -4.549054e+00 241 217 230
-7.500175e-01 6.442641e-01 -4.531345e+00 217 156 171
1.186129e-01 6.494542e-01 -5.353062e+00 229 220 229
8.943031e-02 6.307605e-01 -5.354494e+00 233 219 230
2.491888e+00 6.746471e-01 -5.508205e+00 215 158 52
-5.644087e-01 3.518451e-01 -4.562623e+00 221 166 176
-9.478967e-01 2.667549e-01 -4.630292e+00 245 182 191
-5.138770e-01 2.804888e-01 -4.578172e+00 157 99 112
5.790725e-01 2.700724e-01 -5.652306e+00 212 37 58
-5.067842e-01 1.178453e-01 -4.628017e+00 157 101 113
-5.461018e-01 3.782150e-02 -4.664277e+00 219 170 182
-5.564158e-01 -5.911475e-03 -4.710032e+00 226 178 187
9.555275e-01 3.272252e-02 -5.597700e+00 171 124 141
1.176429e+00 -2.355405e-01 -5.310565e+00 206 134 146
4.381073e-01 -3.584865e-01 -5.914885e+00 188 33 47
6.201328e-01 -4.185005e-01 -5.583251e+00 204 37 56
6.201328e-01 -4.185005e-01 -5.583251e+00 204 37 56
2.537059e+00 -4.004090e-01 -5.362545e+00 232 190 201
2.539437e+00 -4.558483e-01 -5.404168e+00 230 174 188
2.524247e+00 -5.388976e-01 -5.412634e+00 233 198 214
-2.899820e-01 -2.058015e+00 -1.254008e+01 121 96 106
2.509691e+00 -5.757026e-01 -5.479702e+00 235 186 196
1.791124e+00 -2.143709e+00 -1.223148e+01 62 47 48
2.098964e+00 -2.399298e+00 -1.140411e+01 63 47 58
2.314418e+00 -2.254948e+00 -1.077415e+01 119 118 135
2.274960e+00 -2.386705e+00 -1.097170e+01 124 120 135
2.274960e+00 -2.386705e+00 -1.097170e+01 124 120 135
1.874610e+00 -2.870702e+00 -1.196059e+01 56 45 55
1.691674e+00 -3.074395e+00 -1.257323e+01 54 48 60
1.580906e+00 -3.242414e+00 -1.298939e+01 81 74 84
1.460032e+00 -3.324026e+00 -1.320125e+01 47 38 45
1.210411e+00 -3.574109e+00 -1.396037e+01 57 53 64
2.399193e+00 -2.574372e+00 -1.055267e+01 64 53 67
2.541082e+00 -2.599232e+00 -1.012686e+01 67 55 65
1.750273e+00 -3.380574e+00 -1.237092e+01 96 91 106
2.389230e+00 -2.881074e+00 -1.067722e+01 57 46 52
1.329374e+00 -3.816696e+00 -1.355726e+01 44 38 49
2.278588e+00 -3.026750e+00 -1.095555e+01 108 100 118
2.083903e+00 -3.278765e+00 -1.155432e+01 91 78 87
1.658072e+00 -3.700977e+00 -1.268513e+01 42 35 47
2.516561e+00 -2.906559e+00 -1.015221e+01 103 99 121
1.613075e+00 -3.837666e+00 -1.277044e+01 36 26 32
2.488632e+00 -3.072740e+00 -1.037202e+01 101 92 109
2.094293e+00 -3.438877e+00 -1.135536e+01 39 35 50
2.169304e+00 -3.560412e+00 -1.119994e+01 53 51 64
2.307669e+00 -3.508367e+00 -1.093562e+01 57 46 60
2.263838e+00 -3.611632e+00 -1.097821e+01 81 79 96
2.481855e+00 -3.408318e+00 -1.043276e+01 101 97 119
2.792216e+00 -3.121690e+00 -9.498155e+00 53 44 58
2.802542e+00 -3.129586e+00 -9.380014e+00 78 67 82
2.662660e+00 -3.335596e+00 -9.897327e+00 61 53 71
2.904758e+00 -3.145101e+00 -9.157450e+00 123 117 137
7.333410e-01 1.723372e+00 -5.789675e+00 131 4 10
6.901776e-01 1.622121e+00 -5.823735e+00 113 5 7
9.716643e-01 1.634745e+00 -5.702274e+00 142 22 33
3.725817e-01 1.491518e+00 -5.742805e+00 99 2 3
5.755210e-01 1.531038e+00 -5.810800e+00 145 11 18
2.264155e+00 1.715609e+00 -5.948154e+00 191 163 109
2.264155e+00 1.715609e+00 -5.948154e+00 191 163 109
2.235719e+00 1.707417e+00 -5.998720e+00 181 130 43
2.374255e+00 1.664103e+00 -5.769014e+00 194 143 46
9.078330e-02 1.312529e+00 -5.649771e+00 149 14 20
2.115761e-01 1.295200e+00 -5.630891e+00 160 21 22
1.702329e+00 1.430967e+00 -5.451650e+00 69 30 30
1.702329e+00 1.430967e+00 -5.451650e+00 69 30 30
1.550596e+00 1.385729e+00 -5.377731e+00 94 50 54
-9.782488e-01 7.631562e-01 -4.529352e+00 175 107 129
-9.782488e-01 7.631562e-01 -4.529352e+00 175 107 129
-9.341668e-01 7.672431e-01 -4.535664e+00 178 107 123
-9.391539e-01 7.401852e-01 -4.528223e+00 228 165 173
-8.030097e-01 7.461451e-01 -4.529540e+00 225 172 181
1.299302e+00 1.137119e+00 -5.855408e+00 130 9 14
1.299302e+00 1.137119e+00 -5.855408e+00 130 9 14
-9.531015e-02 8.811344e-01 -5.458410e+00 117 8 8
-8.516359e-02 8.415722e-01 -5.477723e+00 163 21 33
-2.278123e-02 8.306018e-01 -5.485292e+00 173 25 39
-6.751890e-01 6.498512e-01 -4.548560e+00 170 104 125
6.743345e-01 7.367984e-01 -5.508697e+00 193 28 44
-1.049642e+00 4.640945e-01 -4.589243e+00 168 156 199
-9.247778e-01 4.463593e-01 -4.584043e+00 165 217 254
8.876982e-01 6.639325e-01 -5.536962e+00 155 20 29
-1.100299e+00 4.006137e-01 -4.602846e+00 236 165 179
-5.451890e-01 3.721023e-01 -4.574555e+00 155 95 108
-4.953053e-01 3.220127e-01 -4.590862e+00 210 149 164
2.176958e+00 4.905033e-01 -6.288554e+00 124 82 37
-4.798377e-01 2.125105e-01 -4.614405e+00 224 163 173
2.513144e+00 4.518594e-01 -5.521996e+00 217 185 59
2.439447e+00 4.247874e-01 -5.581787e+00 217 189 124
6.596473e-01 6.579795e-02 -5.716873e+00 200 35 51
-8.951319e-01 -1.524177e-01 -4.992899e+00 251 253 253
1.157078e+00 -1.938287e-01 -5.340337e+00 206 142 144
2.249306e+00 -4.496034e-01 -6.116890e+00 229 197 56
2.249306e+00 -4.496034e-01 -6.116890e+00 229 197 56
1.935597e+00 -7.958050e-01 -6.479685e+00 193 138 145
2.509403e+00 -5.811248e-01 -5.417704e+00 221 198 215
2.509403e+00 -5.811248e-01 -5.417704e+00 221 198 215
2.157001e+00 -8.562525e-01 -6.328671e+00 217 191 83
2.202576e+00 -8.481059e-01 -6.268808e+00 214 191 78
2.174008e+00 -9.774729e-01 -6.308846e+00 212 189 69
1.972400e+00 -2.331315e+00 -1.167729e+01 51 42 44
2.043334e+00 -2.354728e+00 -1.150412e+01 62 46 53
-1.212003e+00 -2.743647e+00 -1.248678e+01 74 42 54
2.157704e+00 -2.360818e+00 -1.109368e+01 65 54 68
1.182476e+00 -3.311837e+00 -1.370913e+01 40 33 43
1.265369e+00 -3.408226e+00 -1.356271e+01 39 34 40
1.568682e+00 -3.522064e+00 -1.274695e+01 47 42 54
2.120453e+00 -3.196747e+00 -1.139028e+01 55 49 56
2.120453e+00 -3.196747e+00 -1.139028e+01 55 49 56
2.036830e+00 -3.298776e+00 -1.162609e+01 56 47 53
1.413075e+00 -4.034642e+00 -1.346923e+01 43 37 42
2.695971e+00 -2.859121e+00 -9.776595e+00 60 46 62
2.521475e+00 -3.308874e+00 -1.035810e+01 97 90 106
1.747183e+00 -4.324657e+00 -1.246802e+01 41 35 45
5.803365e-01 1.762296e+00 -6.156037e+00 155 16 33
2.293894e+00 1.667835e+00 -5.842802e+00 191 165 78
1.487859e-01 1.312258e+00 -5.629909e+00 157 17 29
1.575237e+00 1.303609e+00 -5.277531e+00 69 31 28
1.575237e+00 1.303609e+00 -5.277531e+00 69 31 28
-1.096183e+00 7.935926e-01 -4.554191e+00 133 74 96
-9.865367e-01 7.955679e-01 -4.542553e+00 226 167 179
-9.549298e-01 7.986994e-01 -4.547736e+00 224 166 176
-9.962294e-01 7.323191e-01 -4.531078e+00 226 164 177
-9.490922e-01 7.102114e-01 -4.547479e+00 226 155 169
-7.615957e-01 7.119879e-01 -4.524590e+00 233 177 193
-1.119364e-01 6.363555e-01 -5.400315e+00 108 10 22
9.040645e-01 6.290565e-01 -5.496680e+00 104 12 15
2.239316e+00 6.101648e-01 -6.217537e+00 194 162 102
1.471017e+00 4.553843e-01 -5.828465e+00 120 11 13
6.421276e-01 2.170126e-01 -5.636424e+00 114 5 13
9.510496e-01 2.387856e-01 -5.738212e+00 199 31 48
7.127361e-01 1.848994e-01 -5.691034e+00 110 14 20
1.110761e+00 1.166847e-01 -5.557141e+00 171 100 114
1.235854e+00 1.096250e-01 -5.505087e+00 94 36 40
9.452531e-01 -3.171384e-03 -5.581604e+00 66 13 21
9.654277e-01 -1.557833e-02 -5.526859e+00 170 108 123
5.350554e-01 -3.163058e-01 -5.688297e+00 188 32 46
1.116937e+00 -2.919669e-01 -5.346923e+00 220 155 163
2.054362e+00 -2.168900e+00 -1.149819e+01 54 41 42
1.522492e+00 -2.593279e+00 -1.234781e+01 110 83 65
1.565517e+00 -2.976245e+00 -1.290968e+01 60 47 59
1.734467e+00 -3.682791e+00 -1.239384e+01 10 10 12
1.734467e+00 -3.682791e+00 -1.239384e+01 10 10 12
2.181298e+00 -3.278172e+00 -1.117758e+01 52 41 50
7.132529e-01 1.774315e+00 -5.800430e+00 176 20 40
2.408499e+00 1.577743e+00 -5.542836e+00 199 144 53
2.408499e+00 1.577743e+00 -5.542836e+00 199 144 53
9.034677e-01 1.166529e+00 -5.701037e+00 103 3 5
-9.741306e-01 6.184815e-01 -4.558784e+00 179 225 255
-1.023890e+00 4.925281e-01 -4.584118e+00 181 230 255
-6.287048e-01 5.136122e-01 -4.601235e+00 235 181 195
1.020177e-01 6.017115e-01 -5.373379e+00 82 11 26
1.032155e+00 6.801417e-01 -5.482747e+00 44 10 8
-5.085827e-01 3.844778e-01 -4.603238e+00 209 148 163
-5.279318e-01 3.368578e-01 -4.546733e+00 156 99 112
2.484587e+00 4.890736e-01 -5.525344e+00 217 189 124
9.494502e-01 1.783037e-01 -5.681859e+00 97 4 5
2.250116e+00 -3.118147e-01 -6.232183e+00 223 187 47
2.063833e+00 -8.684914e-01 -6.513965e+00 214 187 67
2.160097e+00 -1.234525e+00 -6.435319e+00 216 190 68
2.127350e+00 -2.506147e+00 -1.138535e+01 95 85 102
2.648332e+00 -3.181113e+00 -9.867258e+00 53 42 52
2.356217e+00 -3.613220e+00 -1.068300e+01 37 33 48
4.211867e-02 1.420233e+00 -5.799637e+00 93 2 5
2.360829e+00 1.647445e+00 -5.543203e+00 194 169 114
2.469016e-01 1.306476e+00 -5.601753e+00 163 18 28
3.878750e-01 1.114270e+00 -5.539707e+00 171 150 172
1.418162e-01 6.746995e-01 -5.377717e+00 218 203 220
-6.146782e-01 4.694783e-01 -4.620536e+00 107 54 70
8.143183e-01 5.844682e-01 -5.470644e+00 95 0 2
-8.776731e-01 2.753197e-01 -4.593146e+00 208 146 165
1.000029e+00 5.969204e-02 -5.622989e+00 73 5 8
2.409600e+00 -9.307850e-02 -5.793838e+00 219 194 130
2.339538e+00 -1.135057e+00 -5.907691e+00 204 197 104
1.566928e-02 1.107873e+00 -5.659478e+00 91 0 1
4.463212e-01 1.024781e+00 -5.536941e+00 163 18 29
2.311665e+00 9.472632e-01 -5.917296e+00 214 179 57
3.445279e-01 5.114034e-01 -5.364109e+00 70 6 6
1.371007e+00 6.187706e-01 -5.737975e+00 164 21 25
-1.175418e+00 2.307147e-01 -4.798314e+00 244 193 206
2.786394e-01 -6.332891e-02 -5.827331e+00 197 32 55
-9.171228e-01 4.175008e-01 -4.621316e+00 186 201 240
9.917651e-01 5.922163e-01 -5.478113e+00 212 193 208
9.917651e-01 5.922163e-01 -5.478113e+00 212 193 208
1.322572e+00 2.250504e-01 -5.545147e+00 188 119 132
1.034829e+00 1.060499e-02 -5.479812e+00 180 116 131
1.232222e+00 -2.280364e-01 -5.290804e+00 212 144 156
-9.766068e-01 6.579636e-01 -4.577486e+00 192 206 241
-7.661522e-01 3.663416e-01 -4.568285e+00 200 140 158
3.839956e-02 3.729772e-01 -5.475682e+00 152 22 32
8.545050e-01 7.532095e-02 -5.612722e+00 210 178 197
-8.955899e-01 -2.162628e-01 -5.029869e+00 23 24 29
-9.320634e-01 5.453260e-01 -4.557350e+00 20 27 44
-9.320634e-01 5.453260e-01 -4.557350e+00 20 27 44
-9.320634e-01 5.453260e-01 -4.557350e+00 20 27 44
-1.739104e+00 3.566727e+00 -1.062646e+01 97 44 18
-3.402941e+00 3.892097e+00 -1.158256e+01 143 85 86
-4.883475e+00 3.794414e+00 -1.135107e+01 128 70 58
-4.883475e+00 3.794414e+00 -1.135107e+01 128 70 58
-4.710013e+00 3.768206e+00 -1.129643e+01 135 75 58
-5.284939e+00 3.720952e+00 -1.119751e+01 111 38 15
-5.284939e+00 3.720952e+00 -1.119751e+01 111 38 15
-4.735694e+00 3.733485e+00 -1.135137e+01 125 48 26
-5.338171e+00 3.696595e+00 -1.126415e+01 118 62 55
-5.338171e+00 3.696595e+00 -1.126415e+01 118 62 55
-4.747329e+00 3.680167e+00 -1.131532e+01 135 72 66
-4.898598e+00 3.640691e+00 -1.131473e+01 123 47 25
-4.891225e+00 3.600664e+00 -1.117269e+01 123 46 20
-4.891225e+00 3.600664e+00 -1.117269e+01 123 46 20
-3.678759e+00 3.668925e+00 -1.153144e+01 132 53 29
-5.352552e+00 3.618105e+00 -1.133509e+01 123 70 69
-5.352552e+00 3.618105e+00 -1.133509e+01 123 70 69
-4.975245e+00 3.577544e+00 -1.125830e+01 129 71 70
-3.228868e+00 3.636595e+00 -1.163560e+01 141 90 81
-3.809568e+00 3.619009e+00 -1.164632e+01 130 56 28
-3.718256e+00 3.598885e+00 -1.157902e+01 129 58 43
-5.331152e+00 3.493230e+00 -1.126359e+01 125 72 64
-5.167106e+00 3.495689e+00 -1.129097e+01 128 72 58
-5.167106e+00 3.495689e+00 -1.129097e+01 128 72 58
1.935316e+00 2.061880e+00 -6.675041e+00 101 76 44
2.430637e+00 1.708987e+00 -5.484550e+00 195 164 83
2.430637e+00 1.708987e+00 -5.484550e+00 195 164 83
-3.788110e+00 3.515318e+00 -1.159633e+01 136 56 30
-3.788110e+00 3.515318e+00 -1.159633e+01 136 56 30
-3.801808e+00 3.453755e+00 -1.150592e+01 143 79 73
-1.405522e+00 3.074629e+00 -1.122540e+01 70 31 17
1.460153e+00 1.495934e+00 -5.377509e+00 148 108 118
2.384128e+00 1.480277e+00 -5.593013e+00 199 146 52
1.059565e-01 1.502934e+00 -5.767837e+00 157 20 29
-9.259217e-01 2.376383e+00 -9.750137e+00 35 26 28
3.734743e-01 1.124431e+00 -5.546229e+00 225 194 213
-8.644787e-01 9.210334e-01 -4.562440e+00 207 155 167
-7.295516e-01 8.857581e-01 -4.580853e+00 196 145 161
-1.029693e+00 8.468442e-01 -4.565632e+00 192 143 161
-8.930534e-01 8.447056e-01 -4.548942e+00 216 161 173
-6.939100e-03 9.983181e-01 -5.601471e+00 157 16 22
3.638811e-01 9.723845e-01 -5.526979e+00 197 134 154
-7.848476e-01 7.668907e-01 -4.531277e+00 146 87 106
-1.806482e-01 8.424444e-01 -5.463962e+00 120 11 14
2.098442e+00 8.838281e-01 -5.791048e+00 172 117 124
-7.880416e-01 6.939884e-01 -4.531675e+00 216 151 165
1.501998e+00 8.353862e-01 -5.759697e+00 132 12 11
-6.634630e-01 6.707514e-01 -4.554111e+00 235 171 178
-1.098156e+00 6.158103e-01 -4.539112e+00 239 176 188
-4.845971e-01 5.700851e-01 -4.681260e+00 202 154 165
-2.308734e-02 6.007986e-01 -5.348922e+00 193 170 185
-5.326628e-01 4.347030e-01 -4.580980e+00 177 118 132
2.183617e+00 5.641897e-01 -6.235046e+00 138 85 16
-5.373772e-01 4.096402e-01 -4.549949e+00 187 133 147
-1.028379e+00 2.707317e-01 -4.644627e+00 217 155 166
-5.308866e-01 2.609018e-01 -4.586126e+00 216 163 174
2.556162e+00 -1.852209e-01 -5.346979e+00 228 196 207
2.266121e+00 -2.306544e-01 -6.097203e+00 174 144 32
4.748990e-01 -2.253076e-01 -5.943772e+00 186 32 41
2.122245e+00 -2.907534e-01 -6.136521e+00 179 127 103
1.014152e+00 -3.552654e-01 -5.371275e+00 207 143 156
2.519034e+00 -4.823797e-01 -5.440783e+00 230 189 193
2.218008e+00 -5.883767e-01 -6.211899e+00 177 147 42
2.182492e+00 -2.031147e+00 -1.103904e+01 91 79 87
2.182492e+00 -2.031147e+00 -1.103904e+01 91 79 87
2.324486e+00 -2.046876e+00 -1.079423e+01 71 60 79
2.340704e+00 -1.132176e+00 -5.909457e+00 197 196 105
2.140197e+00 -2.221513e+00 -1.129680e+01 68 55 68
2.291889e+00 -1.779067e+00 -8.466306e+00 177 164 132
1.354349e+00 -2.929722e+00 -1.354073e+01 45 36 39
1.363013e+00 -2.956308e+00 -1.336956e+01 64 56 68
1.937125e+00 -2.632828e+00 -1.191992e+01 60 48 58
2.463376e+00 -2.440756e+00 -1.049323e+01 101 91 104
2.399193e+00 -2.574372e+00 -1.055267e+01 64 53 67
2.399193e+00 -2.574372e+00 -1.055267e+01 64 53 67
1.153972e+00 -3.534854e+00 -1.410211e+01 32 27 34
1.839137e+00 -3.195925e+00 -1.221704e+01 76 72 86
1.962621e+00 -3.066971e+00 -1.175377e+01 89 85 100
2.431990e+00 -2.899751e+00 -1.045738e+01 57 46 59
1.529338e+00 -3.641807e+00 -1.306627e+01 58 54 67
1.823554e+00 -3.457830e+00 -1.223002e+01 44 36 48
2.083903e+00 -3.278765e+00 -1.155432e+01 91 78 87
2.236831e+00 -3.164262e+00 -1.112219e+01 54 48 58
2.643242e+00 -2.816807e+00 -9.892149e+00 46 35 44
1.214918e+00 -4.094385e+00 -1.407732e+01 42 33 36
1.959707e+00 -3.487130e+00 -1.182130e+01 52 47 69
2.575042e+00 -3.018297e+00 -1.012727e+01 79 70 88
2.801181e+00 -2.973902e+00 -9.463441e+00 118 109 127
2.640109e+00 -3.269577e+00 -1.001784e+01 91 78 88
2.958491e+00 -2.997545e+00 -9.034947e+00 56 47 63
1.576764e+00 -4.311761e+00 -1.295158e+01 45 43 54
2.207051e+00 -3.741981e+00 -1.098739e+01 88 85 102
9.694432e-01 -5.029089e+00 -1.438340e+01 48 48 58
2.220137e+00 -3.860843e+00 -1.103814e+01 89 88 105
1.456525e+00 -4.650327e+00 -1.325456e+01 21 20 25
-3.802717e+00 3.899618e+00 -1.154310e+01 147 93 87
-5.190683e+00 3.720775e+00 -1.120900e+01 115 40 24
2.389107e+00 1.720003e+00 -5.504654e+00 197 170 94
6.321722e-01 1.716090e+00 -5.831364e+00 176 23 34
-1.464840e+00 3.108424e+00 -1.109861e+01 72 24 13
7.264301e-01 1.578370e+00 -5.830774e+00 118 1 4
1.222044e+00 1.499783e+00 -5.762386e+00 186 135 149
-9.414567e-01 8.628247e-01 -4.592637e+00 212 154 170
-6.068000e-02 1.046640e+00 -5.679308e+00 76 1 0
-4.947055e-01 7.985939e-01 -4.705668e+00 50 20 17
-6.953440e-01 7.778427e-01 -4.569579e+00 228 163 173
2.373389e+00 9.355059e-01 -5.702694e+00 215 184 100
3.123050e-02 8.738930e-01 -5.515742e+00 184 28 41
-7.174343e-01 6.974600e-01 -4.537229e+00 175 117 131
-6.474973e-01 6.438935e-01 -4.570690e+00 237 174 184
-3.813964e-02 7.364930e-01 -5.408816e+00 157 20 33
1.410392e-01 7.228319e-01 -5.398033e+00 71 5 13
3.627848e-01 6.741291e-01 -5.370383e+00 243 214 220
6.351382e-01 6.742572e-01 -5.477260e+00 167 20 29
1.309282e-01 6.284640e-01 -5.358223e+00 75 20 46
2.451321e+00 6.445695e-01 -5.579833e+00 211 158 64
-8.154268e-01 4.885781e-01 -4.571772e+00 183 160 191
-4.988832e-01 4.199849e-01 -4.606265e+00 189 126 142
6.118615e-03 3.978284e-01 -5.484496e+00 211 43 71
-6.959331e-01 3.095977e-01 -4.524314e+00 240 184 194
-6.543019e-01 2.665772e-01 -4.548839e+00 240 183 198
2.144679e+00 3.147981e-01 -6.393141e+00 175 140 44
-5.308856e-01 2.153910e-01 -4.575616e+00 212 159 172
7.530920e-01 2.118704e-01 -5.779232e+00 209 36 57
7.845136e-01 2.087358e-01 -5.730450e+00 214 37 60
1.522747e+00 4.827828e-02 -5.270004e+00 207 146 155
2.549951e+00 -2.263173e-01 -5.359392e+00 234 194 197
2.174286e+00 -2.974246e-01 -6.177857e+00 120 75 16
1.263400e+00 -2.537746e-01 -5.252932e+00 217 154 158
2.546919e+00 -2.801198e-01 -5.313114e+00 231 191 211
2.198998e+00 -3.362039e-01 -6.170331e+00 97 62 2
1.262022e+00 -2.841192e-01 -5.268520e+00 188 125 145
5.614810e-01 -3.422554e-01 -5.615249e+00 185 30 48
2.533065e+00 -3.523911e-01 -5.399974e+00 227 195 196
2.058437e+00 -5.379700e-01 -6.493062e+00 228 192 72
2.513624e+00 -5.242040e-01 -5.461772e+00 231 184 196
2.513911e+00 -6.088394e-01 -5.493352e+00 224 69 105
2.303433e+00 -2.020033e+00 -8.430630e+00 113 98 79
2.448408e+00 -2.145339e+00 -8.136134e+00 188 178 144
1.629278e+00 -3.447721e+00 -1.276715e+01 88 85 104
2.036830e+00 -3.298776e+00 -1.162609e+01 56 47 53
2.772593e+00 -2.755964e+00 -9.564856e+00 58 41 44
2.772593e+00 -2.755964e+00 -9.564856e+00 58 41 44
9.812472e-01 -4.268310e+00 -1.453916e+01 10 10 12
2.153791e+00 -3.498468e+00 -1.122008e+01 84 78 96
-1.995002e+00 -6.517069e+00 -1.949758e+01 80 73 88
2.670422e+00 -3.246202e+00 -9.727196e+00 117 111 134
1.560937e+00 -4.461051e+00 -1.294128e+01 38 35 48
1.560937e+00 -4.461051e+00 -1.294128e+01 38 35 48
-1.930419e+00 -6.953491e+00 -1.992149e+01 55 53 69
-3.695983e+00 3.906837e+00 -1.141474e+01 138 48 24
2.626155e-01 1.784878e+00 -5.810137e+00 115 8 12
2.235719e+00 1.707417e+00 -5.998720e+00 181 130 43
3.238638e-01 1.611556e+00 -5.777538e+00 129 2 6
2.207174e+00 1.692514e+00 -6.029956e+00 173 139 72
-6.026629e-01 2.491984e+00 -9.725426e+00 12 10 10
1.214097e+00 1.141334e+00 -5.180257e+00 185 131 143
1.253201e+00 1.282781e+00 -5.907860e+00 132 11 16
1.306235e+00 1.179072e+00 -5.858727e+00 174 24 37
-8.198565e-02 1.011177e+00 -5.642827e+00 115 11 13
-1.073658e+00 7.660345e-01 -4.545722e+00 229 167 181
1.088202e-01 8.593978e-01 -5.510287e+00 181 25 39
-8.506793e-01 7.116248e-01 -4.519192e+00 235 173 186
-8.871217e-01 6.925829e-01 -4.545223e+00 226 155 168
2.971135e-02 8.056274e-01 -5.495962e+00 113 3 6
-6.751890e-01 6.498512e-01 -4.548560e+00 170 104 125
4.289686e-01 7.332264e-01 -5.360048e+00 242 226 228
2.794132e-01 7.160120e-01 -5.301746e+00 218 198 209
-8.169571e-01 6.123270e-01 -4.596019e+00 246 229 240
-6.484079e-01 5.989129e-01 -4.564436e+00 189 126 143
-6.484079e-01 5.989129e-01 -4.564436e+00 189 126 143
1.476656e+00 7.393741e-01 -5.789771e+00 163 24 31
-1.239136e-01 6.683493e-01 -5.345017e+00 210 35 60
1.207123e+00 6.644866e-01 -5.630346e+00 148 18 24
1.453733e+00 6.618773e-01 -5.767551e+00 162 24 28
-5.433232e-01 5.302047e-01 -4.631072e+00 226 170 182
3.570636e-01 5.833515e-01 -5.429464e+00 158 25 44
2.038227e+00 6.203354e-01 -6.298084e+00 128 70 63
-4.188679e-01 4.505345e-01 -4.613378e+00 207 154 169
-9.839840e-01 4.186079e-01 -4.558100e+00 161 178 219
-4.034058e-01 3.831555e-01 -4.676216e+00 176 116 134
5.047926e-01 2.833897e-01 -5.654579e+00 222 40 64
1.206313e+00 2.803491e-01 -5.768374e+00 185 31 43
4.707212e-01 2.469424e-01 -5.640045e+00 125 4 14
1.142807e+00 2.747685e-02 -5.409196e+00 184 123 138
-6.208841e-01 2.871674e-02 -4.597948e+00 242 194 208
-7.654525e-01 -1.184071e-02 -4.592491e+00 249 199 210
-5.780709e-01 -6.023017e-02 -4.750518e+00 228 179 190
-1.038364e+00 -1.166200e-01 -4.975342e+00 230 162 175
5.253299e-01 -2.216430e-01 -5.773122e+00 173 27 36
2.139861e+00 -2.594329e-01 -6.160655e+00 113 69 10
7.152512e-01 -2.550819e-01 -5.488952e+00 190 29 45
7.537328e-01 -4.015204e-01 -5.511593e+00 196 30 48
2.076821e+00 -8.436990e-01 -6.515752e+00 219 187 72
1.906004e+00 -1.145560e+00 -6.794634e+00 204 181 69
1.207513e+00 -2.308486e+00 -1.217383e+01 121 95 72
1.158680e-01 -2.604144e+00 -1.239539e+01 107 80 72
1.643684e+00 -2.772842e+00 -1.254433e+01 47 39 44
1.212668e+00 -3.111010e+00 -1.380447e+01 44 38 47
-4.864113e-01 -3.106013e+00 -1.307718e+01 106 82 85
-1.511730e+00 -3.247880e+00 -1.339715e+01 85 77 89
1.955155e+00 -3.314869e+00 -1.183887e+01 51 46 60
2.499016e+00 -2.972284e+00 -1.034270e+01 60 52 63
2.499016e+00 -2.972284e+00 -1.034270e+01 60 52 63
2.695971e+00 -2.859121e+00 -9.776595e+00 60 46 62
6.011034e-01 -4.100894e+00 -1.378957e+01 12 12 12
2.837595e+00 -2.857346e+00 -9.309998e+00 56 44 54
7.157243e-01 -4.370732e+00 -1.419392e+01 10 10 10
7.157243e-01 -4.370732e+00 -1.419392e+01 10 10 10
2.312160e+00 -3.895611e+00 -1.086439e+01 84 79 98
-3.136365e+00 3.639321e+00 -1.166468e+01 136 51 17
-3.136365e+00 3.639321e+00 -1.166468e+01 136 51 17
3.810425e-01 1.612765e+00 -5.831175e+00 124 3 10
5.310949e-01 1.575699e+00 -5.741081e+00 140 8 15
2.258077e+00 1.654999e+00 -6.001932e+00 188 163 106
1.456042e+00 1.417321e+00 -5.317988e+00 127 84 93
-1.031969e+00 8.139726e-01 -4.533451e+00 152 97 120
-8.847091e-01 7.849428e-01 -4.524251e+00 224 165 176
1.392923e+00 9.552735e-01 -5.757004e+00 130 11 17
1.059855e+00 7.357147e-01 -5.601933e+00 189 32 43
2.274426e-01 6.408466e-01 -5.380200e+00 161 131 139
-4.134833e-01 3.226736e-01 -4.639964e+00 189 128 143
3.213933e-01 -2.760409e-01 -6.081773e+00 163 22 33
5.044876e-01 -2.952112e-01 -5.871071e+00 178 28 43
5.694379e-01 -1.906886e+00 -1.228172e+01 109 86 68
2.119857e+00 -1.228629e+00 -6.335913e+00 212 187 63
2.119857e+00 -1.228629e+00 -6.335913e+00 212 187 63
1.390658e+00 -2.543184e+00 -1.235899e+01 17 29 48
2.297180e+00 -1.939874e+00 -8.460108e+00 178 170 139
2.181298e+00 -3.278172e+00 -1.117758e+01 52 41 50
2.723798e+00 -3.159515e+00 -1.010575e+01 98 97 121
2.648332e+00 -3.181113e+00 -9.867258e+00 53 42 52
-1.787829e+00 3.234216e+00 -1.114593e+01 95 48 19
5.895817e-01 1.731676e+00 -5.863103e+00 64 2 0
2.393780e+00 1.424287e+00 -5.586531e+00 198 170 98
8.155189e-01 9.778975e-01 -5.613649e+00 151 15 29
-2.132507e-01 7.668686e-01 -5.388523e+00 151 13 29
2.139031e+00 7.844440e-01 -5.957697e+00 196 141 142
2.434596e+00 6.737878e-01 -5.605674e+00 214 185 121
-1.063863e+00 4.185374e-01 -4.621370e+00 241 190 207
2.221494e+00 4.801591e-01 -6.258669e+00 188 146 42
-9.827779e-01 1.496916e-01 -4.639067e+00 237 179 193
2.281177e-01 6.222456e-02 -6.021749e+00 207 30 52
2.536078e+00 -1.940192e-01 -5.400742e+00 224 38 63
3.693164e-01 -2.284459e-01 -5.981675e+00 206 32 56
2.555848e+00 -2.700687e-01 -5.362836e+00 227 178 194
2.541091e+00 -3.436180e-01 -5.366850e+00 222 182 193
2.541091e+00 -3.436180e-01 -5.366850e+00 222 182 193
2.090946e+00 -4.881271e-01 -6.182554e+00 192 140 152
1.870919e+00 -2.165254e+00 -1.197433e+01 90 77 87
4.759711e-01 -3.245932e+00 -1.295443e+01 105 80 64
2.413610e+00 -2.045615e+00 -8.191713e+00 188 174 148
2.973019e+00 -2.907813e+00 -9.020766e+00 60 49 63
1.425944e+00 -4.440252e+00 -1.331914e+01 68 65 75
2.356217e+00 -3.613220e+00 -1.068300e+01 37 33 48
8.217631e-01 -4.919399e+00 -1.449897e+01 42 42 51
-7.542004e-01 3.324942e+00 -1.022953e+01 27 17 13
2.387899e+00 1.765810e+00 -5.539817e+00 191 166 47
1.240872e+00 1.463706e+00 -5.454987e+00 134 93 110
-5.644986e-01 2.258411e+00 -9.644019e+00 26 22 21
8.183144e-01 8.088582e-01 -5.536826e+00 166 21 27
-1.420657e-01 7.214152e-01 -5.386131e+00 194 33 50
2.503767e+00 7.225156e-01 -5.471389e+00 214 159 61
-1.285439e-01 5.880786e-01 -5.460018e+00 221 210 224
1.534716e+00 5.807895e-01 -5.803245e+00 192 34 55
-1.447789e-02 4.674579e-01 -5.491595e+00 228 55 94
-1.447789e-02 4.674579e-01 -5.491595e+00 228 55 94
1.166451e+00 1.400748e-01 -5.540582e+00 189 122 139
6.782290e-01 -2.348898e+00 -1.211224e+01 24 23 26
1.130768e+00 -4.187209e+00 -1.433423e+01 50 44 52
2.289998e+00 -3.703790e+00 -1.094838e+01 74 72 95
-4.254554e-02 1.182785e+00 -5.731752e+00 163 14 25
8.815976e-01 5.366626e-01 -5.441701e+00 212 196 202
8.815976e-01 5.366626e-01 -5.441701e+00 212 196 202
2.402303e+00 3.693627e-01 -5.627542e+00 217 190 121
-1.685149e-01 2.526372e-01 -5.587947e+00 230 212 228
-1.218587e+00 1.171803e-01 -4.865775e+00 232 158 173
2.254425e+00 -7.702424e-01 -6.306801e+00 208 183 76
2.187912e-01 -2.602041e+00 -1.228964e+01 101 75 60
-1.860401e+00 -2.844563e+00 -1.250249e+01 85 82 101
3.380678e-01 -3.454551e+00 -1.316490e+01 9 9 9
2.552149e+00 -2.818303e+00 -1.017322e+01 100 96 118
-2.959487e+00 3.153501e+00 -1.190206e+01 24 22 27
6.470578e-01 1.120290e+00 -5.606935e+00 128 9 12
1.410700e+00 3.455652e-01 -5.682552e+00 67 9 10
-7.997267e-02 2.119859e-01 -5.683033e+00 199 31 51
1.821036e+00 -1.086553e+00 -7.015915e+00 200 180 66
-1.286254e+00 -2.929860e+00 -1.254847e+01 58 58 69
1.002282e+00 -3.722527e+00 -1.386039e+01 51 49 60
2.545162e+00 -3.436725e+00 -1.030369e+01 72 66 88
-1.780802e-02 1.531265e+00 -5.872565e+00 160 15 26
2.474248e+00 5.926333e-01 -5.561047e+00 214 155 47
-9.958255e-02 3.270718e-01 -5.524907e+00 235 234 242
2.104265e+00 -6.210658e-01 -6.361975e+00 218 185 69
1.484565e+00 -4.211753e+00 -1.234751e+01 51 48 65
5.774906e-01 1.535328e+00 -5.813355e+00 146 12 20
5.261355e-01 1.348983e+00 -5.836117e+00 24 8 9
1.381105e+00 -4.035063e+00 -1.321281e+01 56 51 64
1.975917e+00 8.433462e-01 -6.253864e+00 192 132 142
-4.947849e-02 5.477158e-01 -5.439523e+00 244 238 244
2.253306e+00 7.009492e-01 -5.981416e+00 217 166 52
9.705878e-01 -2.663084e-01 -5.442839e+00 215 147 158
-1.068088e-02 6.038449e-02 9.281896e-03 0 255 0
-1.059110e-02 6.002562e-02 -4.071674e-02 255 255 0
-6.559514e-01 7.533146e-01 3.509818e-01 255 0 0
-6.529064e-01 7.505128e-01 3.011534e-01 255 255 0
