ply
format ascii 1.0
element face 0
property list uchar int vertex_indices
element vertex 936
property float x
property float y
property float z
property uchar diffuse_red
property uchar diffuse_green
property uchar diffuse_blue
end_header
9.582912e-02 8.318317e-01 -5.522108e+00 184 28 41
-5.823217e-01 6.713807e-01 -4.582042e+00 175 117 131
-5.185786e-01 6.220674e-01 -4.617416e+00 237 174 184
3.287258e-02 7.048175e-01 -5.421242e+00 157 20 33
1.986448e-01 6.923802e-01 -5.412160e+00 71 5 13
4.038717e-01 6.476696e-01 -5.385984e+00 243 214 220
6.550149e-01 6.478252e-01 -5.485760e+00 167 20 29
1.897340e-01 6.051892e-01 -5.374709e+00 75 20 46
2.346063e+00 6.255512e-01 -5.541633e+00 211 158 64
-6.728951e-01 4.793490e-01 -4.615259e+00 183 160 191
-3.823180e-01 4.160393e-01 -4.658452e+00 189 126 142
7.336434e-02 3.911165e-01 -5.494145e+00 211 43 71
-5.623604e-01 3.150102e-01 -4.576942e+00 240 184 194
-5.244014e-01 2.752828e-01 -4.601392e+00 240 183 198
2.050772e+00 3.130758e-01 -6.309116e+00 175 140 44
-4.111991e-01 2.280266e-01 -4.629626e+00 212 159 172
7.620844e-01 2.182075e-01 -5.767416e+00 209 36 57
7.913980e-01 2.156885e-01 -5.720217e+00 214 37 60
1.474258e+00 7.237025e-02 -5.257611e+00 207 146 155
2.427839e+00 -1.801171e-01 -5.300402e+00 234 194 197
2.083109e+00 -2.551981e-01 -6.108320e+00 120 75 16
1.233097e+00 -2.057329e-01 -5.237893e+00 217 154 158
2.424070e+00 -2.292660e-01 -5.253729e+00 231 191 211
2.106086e+00 -2.911168e-01 -6.099189e+00 97 62 2
1.231700e+00 -2.337714e-01 -5.251716e+00 188 125 145
5.853227e-01 -2.927408e-01 -5.599757e+00 185 30 48
2.411268e+00 -2.968836e-01 -5.335657e+00 227 195 196
1.975520e+00 -4.824729e-01 -6.411746e+00 228 192 72
2.392230e+00 -4.560337e-01 -5.389508e+00 231 184 196
2.392060e+00 -5.344148e-01 -5.416513e+00 224 69 105
2.229955e+00 -1.919421e+00 -8.315440e+00 113 98 79
2.368670e+00 -2.033893e+00 -8.016298e+00 188 178 144
1.603800e+00 -3.444584e+00 -1.283772e+01 88 85 104
2.004862e+00 -3.265131e+00 -1.163878e+01 56 47 53
2.709388e+00 -2.674075e+00 -9.492891e+00 58 41 44
2.709388e+00 -2.674075e+00 -9.492891e+00 58 41 44
9.601888e-01 -4.341328e+00 -1.476919e+01 10 10 12
2.123560e+00 -3.455759e+00 -1.122136e+01 84 78 96
-2.188189e+00 -6.985461e+00 -2.051511e+01 80 73 88
2.621201e+00 -3.164497e+00 -9.668137e+00 117 111 134
1.550989e+00 -4.493268e+00 -1.307551e+01 38 35 48
1.550989e+00 -4.493268e+00 -1.307551e+01 38 35 48
-2.137705e+00 -7.496037e+00 -2.106075e+01 55 53 69
-3.689283e+00 3.868445e+00 -1.151615e+01 138 48 24
3.065565e-01 1.678487e+00 -5.782786e+00 115 8 12
2.151489e+00 1.618396e+00 -5.952093e+00 181 130 43
3.645955e-01 1.519137e+00 -5.766424e+00 129 2 6
2.124586e+00 1.604226e+00 -5.983307e+00 173 139 72
-5.553769e-01 2.375577e+00 -9.642924e+00 12 10 10
1.190891e+00 1.081888e+00 -5.181472e+00 185 131 143
1.228243e+00 1.214638e+00 -5.887651e+00 132 11 16
1.277642e+00 1.118133e+00 -5.840800e+00 174 24 37
-1.043842e-02 9.587412e-01 -5.639988e+00 115 11 13
-9.091096e-01 7.342469e-01 -4.571443e+00 229 167 181
1.676885e-01 8.184887e-01 -5.517460e+00 181 25 39
-7.043099e-01 6.844292e-01 -4.559086e+00 235 173 186
-7.381722e-01 6.668684e-01 -4.582549e+00 226 155 168
9.468664e-02 7.686296e-01 -5.503962e+00 113 3 6
-5.436974e-01 6.276218e-01 -4.595451e+00 170 104 125
4.650975e-01 7.024983e-01 -5.375678e+00 242 226 228
3.273511e-01 6.865569e-01 -5.320929e+00 218 198 209
-6.746187e-01 5.929713e-01 -4.635594e+00 246 229 240
-5.193092e-01 5.807579e-01 -4.612382e+00 189 126 143
-5.193092e-01 5.807579e-01 -4.612382e+00 189 126 143
1.435237e+00 7.092686e-01 -5.771519e+00 163 24 31
-4.260189e-02 6.453957e-01 -5.392619e+00 210 35 60
1.184486e+00 6.394685e-01 -5.623408e+00 148 18 24
1.413597e+00 6.372149e-01 -5.750003e+00 162 24 28
-4.235970e-01 5.172972e-01 -4.679446e+00 226 170 182
3.981545e-01 5.634134e-01 -5.442065e+00 158 25 44
1.960787e+00 5.982371e-01 -6.249455e+00 128 70 63
-3.088453e-01 4.441090e-01 -4.666592e+00 207 154 169
-8.276474e-01 4.151819e-01 -4.596459e+00 161 178 219
-2.953407e-01 3.817837e-01 -4.726402e+00 176 116 134
5.331219e-01 2.848188e-01 -5.652816e+00 222 40 64
1.182214e+00 2.825428e-01 -5.750116e+00 185 31 43
5.016934e-01 2.511319e-01 -5.638785e+00 125 4 14
1.123064e+00 5.132351e-02 -5.400858e+00 184 123 138
-4.942448e-01 5.608686e-02 -4.647962e+00 242 194 208
-6.273323e-01 1.874112e-02 -4.639044e+00 249 199 210
-4.568460e-01 -2.702097e-02 -4.791468e+00 228 179 190
-8.854116e-01 -8.128170e-02 -4.991668e+00 230 162 175
5.510622e-01 -1.831020e-01 -5.754987e+00 173 27 36
2.050857e+00 -2.197453e-01 -6.093454e+00 113 69 10
7.277999e-01 -2.106535e-01 -5.478424e+00 190 29 45
7.629364e-01 -3.456537e-01 -5.494177e+00 196 30 48
1.992656e+00 -7.673278e-01 -6.424267e+00 219 187 72
1.834378e+00 -1.053233e+00 -6.692904e+00 204 181 69
1.177397e+00 -2.283666e+00 -1.216181e+01 121 95 72
1.107482e-01 -2.579509e+00 -1.238207e+01 107 80 72
1.609630e+00 -2.757814e+00 -1.257585e+01 47 39 44
1.184128e+00 -3.130821e+00 -1.392114e+01 44 38 47
-4.884908e-01 -3.100408e+00 -1.310832e+01 106 82 85
-1.509126e+00 -3.260916e+00 -1.345418e+01 85 77 89
1.924642e+00 -3.285812e+00 -1.185906e+01 51 46 60
2.450395e+00 -2.906690e+00 -1.029845e+01 60 52 63
2.450395e+00 -2.906690e+00 -1.029845e+01 60 52 63
2.638119e+00 -2.781120e+00 -9.712742e+00 60 46 62
5.824568e-01 -4.135989e+00 -1.392806e+01 12 12 12
2.773057e+00 -2.767901e+00 -9.231615e+00 56 44 54
6.960389e-01 -4.431425e+00 -1.438573e+01 10 10 10
6.960389e-01 -4.431425e+00 -1.438573e+01 10 10 10
2.288775e+00 -3.852036e+00 -1.086953e+01 84 79 98
-3.118939e+00 3.584473e+00 -1.176103e+01 136 51 17
-3.118939e+00 3.584473e+00 -1.176103e+01 136 51 17
4.167072e-01 1.518899e+00 -5.810550e+00 124 3 10
5.567174e-01 1.484606e+00 -5.725239e+00 140 8 15
2.161062e+00 1.563081e+00 -5.931731e+00 188 163 106
1.418767e+00 1.341090e+00 -5.316222e+00 127 84 93
-8.706999e-01 7.792920e-01 -4.566131e+00 152 97 120
-7.355282e-01 7.516636e-01 -4.560054e+00 224 165 176
1.358037e+00 9.100383e-01 -5.742569e+00 130 11 17
1.048076e+00 7.053025e-01 -5.599406e+00 189 32 43
2.787197e-01 6.166614e-01 -5.395589e+00 161 131 139
-3.041032e-01 3.263360e-01 -4.692316e+00 189 128 143
3.601937e-01 -2.369927e-01 -6.052431e+00 163 22 33
5.208881e-01 -2.448883e-01 -5.770757e+00 178 28 43
5.525504e-01 -1.889758e+00 -1.226063e+01 109 86 68
2.031672e+00 -1.122277e+00 -6.232473e+00 212 187 63
2.031672e+00 -1.122277e+00 -6.232473e+00 212 187 63
1.358257e+00 -2.521750e+00 -1.236562e+01 17 29 48
2.223177e+00 -1.843028e+00 -8.345758e+00 178 170 139
2.146315e+00 -3.232363e+00 -1.116962e+01 52 41 50
2.675573e+00 -3.091355e+00 -1.006437e+01 98 97 121
2.599207e+00 -3.103710e+00 -9.812817e+00 53 42 52
-1.744008e+00 3.140021e+00 -1.116249e+01 95 48 19
6.102735e-01 1.630525e+00 -5.838302e+00 64 2 0
2.298395e+00 1.353955e+00 -5.553869e+00 198 170 98
8.216440e-01 9.295369e-01 -5.613410e+00 151 15 29
-1.288451e-01 7.328593e-01 -5.399558e+00 151 13 29
2.055443e+00 7.532360e-01 -5.918600e+00 196 141 142
2.331640e+00 6.528065e-01 -5.569075e+00 214 185 121
-9.021534e-01 4.148220e-01 -4.652548e+00 241 190 207
2.132132e+00 4.681238e-01 -6.204659e+00 188 146 42
-8.282169e-01 1.671860e-01 -4.675828e+00 237 179 193
2.741888e-01 7.695507e-02 -6.003064e+00 207 30 52
2.415805e+00 -1.507904e-01 -5.342619e+00 224 38 63
4.053398e-01 -1.917939e-01 -5.956957e+00 206 32 56
2.433091e+00 -2.205512e-01 -5.302177e+00 227 178 194
2.418260e+00 -2.883408e-01 -5.303062e+00 222 182 193
2.418260e+00 -2.883408e-01 -5.303062e+00 222 182 193
2.004250e+00 -4.322377e-01 -6.108713e+00 192 140 152
1.826145e+00 -2.141407e+00 -1.196499e+01 90 77 87
4.605545e-01 -3.236281e+00 -1.299305e+01 105 80 64
2.334363e+00 -1.939125e+00 -8.073368e+00 188 174 148
2.904072e+00 -2.811169e+00 -8.934666e+00 60 49 63
1.414375e+00 -4.483285e+00 -1.347638e+01 68 65 75
2.341665e+00 -3.582247e+00 -1.073275e+01 37 33 48
8.053520e-01 -5.020844e+00 -1.476037e+01 42 42 51
-7.133556e-01 3.201125e+00 -1.018217e+01 27 17 13
2.296780e+00 1.675425e+00 -5.503700e+00 191 166 47
1.218143e+00 1.383187e+00 -5.450148e+00 134 93 110
-5.218807e-01 2.167053e+00 -9.654033e+00 26 22 21
8.244837e-01 7.728019e-01 -5.540882e+00 166 21 27
-6.575475e-02 6.906154e-01 -5.417120e+00 194 33 50
2.395401e+00 6.988376e-01 -5.435996e+00 214 159 61
-5.108999e-02 5.672044e-01 -5.470265e+00 221 210 224
1.488660e+00 5.619321e-01 -5.781587e+00 192 34 55
5.419384e-02 4.554962e-01 -5.501124e+00 228 55 94
5.419384e-02 4.554962e-01 -5.501124e+00 228 55 94
1.145154e+00 1.542535e-01 -5.529264e+00 189 122 139
6.612702e-01 -2.320696e+00 -1.208992e+01 24 23 26
1.110802e+00 -4.251295e+00 -1.454671e+01 50 44 52
2.268857e+00 -3.666880e+00 -1.097298e+01 74 72 95
2.496681e-02 1.117956e+00 -5.721966e+00 163 14 25
8.858580e-01 5.223927e-01 -5.450285e+00 212 196 202
8.858580e-01 5.223927e-01 -5.450285e+00 212 196 202
2.297786e+00 3.690385e-01 -5.584131e+00 217 190 121
-8.914394e-02 2.559945e-01 -5.590858e+00 230 212 228
-1.049705e+00 1.356359e-01 -4.880567e+00 232 158 173
2.158209e+00 -6.962088e-01 -6.218268e+00 208 183 76
2.123499e-01 -2.574833e+00 -1.227300e+01 101 75 60
-1.831995e+00 -2.834944e+00 -1.249805e+01 85 82 101
3.236342e-01 -3.453927e+00 -1.322450e+01 9 9 9
2.498413e+00 -2.749393e+00 -1.011955e+01 100 96 118
-2.938364e+00 3.092243e+00 -1.199965e+01 24 22 27
6.609132e-01 1.056835e+00 -5.571582e+00 128 9 12
1.372235e+00 3.439389e-01 -5.664390e+00 67 9 10
-8.164529e-03 2.178108e-01 -5.681632e+00 199 31 51
1.755589e+00 -1.001905e+00 -6.914811e+00 200 180 66
-1.266740e+00 -2.915384e+00 -1.254625e+01 58 58 69
9.795464e-01 -3.753034e+00 -1.399966e+01 51 49 60
2.506245e+00 -3.372122e+00 -1.027216e+01 72 66 88
4.602990e-02 1.442061e+00 -5.848628e+00 160 15 26
2.366977e+00 5.773493e-01 -5.521771e+00 214 155 47
-2.474078e-02 3.253296e-01 -5.531892e+00 235 234 242
2.017381e+00 -5.579468e-01 -6.279215e+00 218 185 69
1.471657e+00 -4.211846e+00 -1.242258e+01 51 48 65
5.994457e-01 1.447361e+00 -5.796041e+00 146 12 20
5.517755e-01 1.273808e+00 -5.823004e+00 24 8 9
1.363802e+00 -4.057619e+00 -1.333477e+01 56 51 64
1.903333e+00 8.066277e-01 -6.210119e+00 192 132 142
2.228230e-02 5.299902e-01 -5.451499e+00 244 238 244
2.162341e+00 6.756633e-01 -5.937592e+00 217 166 52
9.632015e-01 -2.199209e-01 -5.427862e+00 215 147 158
2.196964e+00 1.895823e+00 -5.774866e+00 181 145 34
1.018709e-01 3.194083e+00 -1.031738e+01 6 5 5
3.498629e-01 3.168494e+00 -1.024206e+01 14 14 13
1.782719e+00 2.071848e+00 -6.825906e+00 113 88 22
2.120383e+00 1.766937e+00 -6.017352e+00 167 116 41
-1.507050e+00 3.132330e+00 -1.100679e+01 79 37 18
2.123125e+00 1.674581e+00 -5.913950e+00 178 125 35
9.103403e-01 1.581789e+00 -5.704122e+00 172 25 39
-2.374988e+00 3.010853e+00 -1.162883e+01 91 86 97
1.307339e-01 1.413370e+00 -5.834812e+00 160 19 28
-7.769817e-01 2.250937e+00 -9.657940e+00 21 17 17
1.383529e-01 1.125737e+00 -5.615546e+00 160 17 26
2.406125e+00 1.001523e+00 -5.397081e+00 203 166 88
5.284157e-01 9.244447e-01 -5.548231e+00 187 125 138
-1.106265e+00 6.827408e-01 -4.643224e+00 237 175 188
2.352090e-01 6.627943e-01 -5.377855e+00 187 157 175
3.911136e-01 6.075557e-01 -5.423021e+00 124 19 39
-4.597816e-01 4.637567e-01 -4.662557e+00 171 121 136
1.536784e-02 5.214548e-01 -5.471855e+00 231 215 227
-8.065529e-01 3.841842e-01 -4.647775e+00 234 192 216
2.369876e+00 1.198654e-01 -5.456734e+00 184 158 94
1.064417e+00 9.879176e-02 -5.497451e+00 135 60 70
1.044075e+00 3.943513e-02 -5.420748e+00 187 127 143
2.190769e+00 1.369593e-02 -5.954867e+00 167 136 16
2.190769e+00 1.369593e-02 -5.954867e+00 167 136 16
2.431279e+00 -1.603400e-01 -5.318883e+00 216 77 94
2.431279e+00 -1.603400e-01 -5.318883e+00 216 77 94
7.537052e-01 -1.695323e-01 -5.501205e+00 170 20 32
2.342561e+00 -2.016832e-01 -5.568946e+00 187 154 21
-6.938943e-01 -2.065305e-01 -4.980233e+00 163 189 229
2.170518e+00 -3.835297e-01 -6.005381e+00 168 134 18
2.418933e+00 -3.700654e-01 -5.359551e+00 208 95 124
2.404108e+00 -4.422455e-01 -5.368089e+00 211 98 137
2.396095e+00 -4.876193e-01 -5.377792e+00 210 105 133
2.396095e+00 -4.876193e-01 -5.377792e+00 210 105 133
2.414016e+00 -5.985634e-01 -5.346048e+00 241 146 70
1.901209e+00 -1.878561e+00 -1.184461e+01 66 52 59
-3.246665e-01 -2.185630e+00 -1.253260e+01 110 90 92
2.004859e+00 -1.979847e+00 -1.146253e+01 107 91 101
2.004859e+00 -1.979847e+00 -1.146253e+01 107 91 101
2.016394e+00 -2.186166e+00 -1.138347e+01 72 57 69
2.016394e+00 -2.186166e+00 -1.138347e+01 72 57 69
1.299535e+00 -2.568382e+00 -1.281137e+01 29 33 52
1.077893e+00 -2.992192e+00 -1.420818e+01 70 66 80
1.982984e+00 -2.413933e+00 -1.155385e+01 51 41 50
1.950450e+00 -2.719685e+00 -1.169827e+01 70 59 72
2.453041e+00 -2.391381e+00 -1.013897e+01 111 103 121
2.341975e+00 -2.752999e+00 -1.059695e+01 116 108 122
1.509403e+00 -3.515186e+00 -1.312110e+01 72 66 81
1.653509e+00 -3.386029e+00 -1.268940e+01 52 46 59
1.392948e+00 -3.601395e+00 -1.336611e+01 70 65 77
2.004559e+00 -3.136989e+00 -1.157561e+01 95 90 98
1.848998e+00 -3.339239e+00 -1.207043e+01 51 44 60
1.692904e+00 -3.605053e+00 -1.251262e+01 28 25 35
2.582875e+00 -2.898867e+00 -9.977717e+00 85 80 101
2.298758e+00 -3.223718e+00 -1.078594e+01 113 110 127
1.871952e+00 -3.644409e+00 -1.210341e+01 56 54 70
2.831930e+00 -2.810075e+00 -9.224659e+00 83 67 81
2.568440e+00 -3.095821e+00 -1.004740e+01 115 109 125
2.703211e+00 -2.979118e+00 -9.645789e+00 69 57 68
2.704061e+00 -3.008286e+00 -9.559965e+00 32 30 45
2.833246e+00 -2.909725e+00 -9.203834e+00 115 100 122
2.430517e+00 -3.390260e+00 -1.034047e+01 51 47 63
2.007383e+00 -3.901453e+00 -1.162615e+01 52 41 52
2.424584e+00 -3.507461e+00 -1.048919e+01 56 47 59
2.424584e+00 -3.507461e+00 -1.048919e+01 56 47 59
2.895646e+00 -3.059404e+00 -9.091524e+00 86 75 97
2.961460e+00 -2.982394e+00 -8.844172e+00 94 87 101
2.089173e+00 1.841107e+00 -6.073505e+00 158 107 35
2.077086e+00 1.858390e+00 -6.143384e+00 141 95 23
2.061434e+00 1.804176e+00 -6.054209e+00 140 107 47
6.941613e-01 1.601990e+00 -5.765366e+00 172 24 35
2.107114e+00 1.696312e+00 -6.031610e+00 144 115 63
2.312293e+00 1.365590e+00 -5.487185e+00 195 148 50
1.021803e-01 1.394343e+00 -5.818089e+00 171 24 35
4.480879e-01 1.374916e+00 -5.721186e+00 100 1 1
2.370407e+00 1.337271e+00 -5.411252e+00 202 178 111
2.384385e+00 1.235444e+00 -5.276924e+00 199 156 71
3.407768e-01 1.115753e+00 -5.545807e+00 175 23 37
3.451156e-01 9.986256e-01 -5.501846e+00 192 30 44
2.413828e+00 9.844688e-01 -5.370223e+00 215 181 109
2.289732e+00 8.847602e-01 -5.819635e+00 216 184 101
2.391737e+00 7.357240e-01 -5.416047e+00 219 185 122
2.402802e+00 7.163975e-01 -5.398035e+00 210 165 76
1.035362e+00 5.178372e-01 -5.464725e+00 205 40 72
-7.364053e-01 3.327215e-01 -4.658251e+00 246 184 198
-4.170990e-01 2.893705e-01 -4.622209e+00 224 173 182
2.230049e+00 -3.765301e-02 -5.863470e+00 209 174 47
2.382674e+00 -4.043204e-02 -5.419428e+00 221 190 75
1.099458e+00 -1.596437e-01 -5.304029e+00 198 127 145
7.027789e-01 -1.849425e-01 -5.543746e+00 150 15 21
1.299447e+00 -2.279416e-01 -5.237455e+00 186 128 142
2.152566e+00 -4.251614e-01 -6.059522e+00 226 194 61
2.074045e+00 -6.131946e-01 -6.230672e+00 161 170 128
2.111833e+00 -6.458907e-01 -6.160868e+00 165 138 43
1.671785e+00 -9.128035e-01 -7.084719e+00 199 176 75
2.171023e+00 -1.344719e+00 -5.916185e+00 202 152 45
2.489745e+00 -2.539821e+00 -1.009475e+01 67 55 65
1.352281e+00 -3.705147e+00 -1.362856e+01 42 35 44
1.984640e+00 -3.432667e+00 -1.175244e+01 87 81 96
2.172010e+00 -3.391280e+00 -1.113897e+01 48 44 54
2.539295e+00 -3.158006e+00 -1.009035e+01 66 50 61
2.271404e+00 -3.450344e+00 -1.090541e+01 57 46 60
2.742975e+00 -3.041343e+00 -9.450085e+00 53 44 58
2.648425e+00 -3.204559e+00 -9.774043e+00 117 111 134
2.856420e+00 -3.064468e+00 -9.122266e+00 123 117 137
2.465871e+00 -3.515156e+00 -1.034607e+01 94 91 109
2.597798e+00 -3.463852e+00 -9.957851e+00 105 99 117
2.430632e+00 1.668339e+00 -5.207308e+00 174 153 40
2.430632e+00 1.668339e+00 -5.207308e+00 174 153 40
-1.689075e+00 2.972282e+00 -1.141103e+01 26 14 15
2.211380e+00 1.512476e+00 -5.743347e+00 192 141 45
2.211380e+00 1.512476e+00 -5.743347e+00 192 141 45
2.300708e+00 1.396724e+00 -5.543983e+00 199 150 49
2.398332e+00 1.195935e+00 -5.275961e+00 204 178 120
-6.839262e-01 9.174811e-01 -4.637364e+00 157 124 143
1.217911e+00 9.778776e-01 -5.759123e+00 99 1 7
1.038678e+00 8.131269e-01 -5.596648e+00 161 20 28
-5.944213e-01 6.482513e-01 -4.582357e+00 221 165 178
1.053943e+00 6.080057e-01 -5.443508e+00 101 6 12
2.095948e+00 5.541683e-01 -6.175620e+00 147 94 24
2.393379e+00 3.894413e-01 -5.410181e+00 223 189 125
8.334481e-01 4.711128e-02 -5.638084e+00 223 198 214
1.109447e+00 -2.007209e-01 -5.327277e+00 204 133 146
5.842253e-01 -1.563772e+00 -1.228662e+01 117 88 63
1.768331e+00 -1.763137e+00 -1.216013e+01 76 54 63
2.343236e+00 -3.445691e+00 -1.063337e+01 57 53 69
2.343236e+00 -3.445691e+00 -1.063337e+01 57 53 69
2.149176e+00 1.772121e+00 -5.932168e+00 184 157 43
2.210642e+00 1.585170e+00 -5.811726e+00 191 165 78
-2.288178e+00 3.052470e+00 -1.156538e+01 19 17 20
4.532365e-01 1.478971e+00 -5.732884e+00 122 4 9
8.634841e-02 1.259448e+00 -5.725631e+00 139 13 17
1.118267e+00 1.311899e+00 -5.997982e+00 144 18 24
4.569970e-01 1.099483e+00 -5.545511e+00 169 21 31
-8.231375e-01 6.532511e-01 -4.603522e+00 243 231 243
8.368699e-01 7.054978e-01 -5.537174e+00 197 30 47
1.411530e+00 6.808777e-01 -5.782729e+00 104 9 6
8.945092e-01 -2.819360e-02 -5.568394e+00 51 9 18
2.165067e+00 -2.988284e+00 -1.109762e+01 51 48 60
2.802241e+00 -3.239428e+00 -9.367880e+00 72 50 58
1.059483e+00 7.653192e-01 -5.573350e+00 154 14 25
7.997774e-01 6.196866e-01 -5.502791e+00 183 26 44
7.997774e-01 6.196866e-01 -5.502791e+00 183 26 44
1.424694e+00 5.192591e-01 -5.789610e+00 118 9 11
1.367444e+00 4.786941e-01 -5.772814e+00 159 24 28
1.363556e+00 4.784563e-01 -5.755898e+00 159 24 28
7.954029e-01 2.794548e-02 -5.665091e+00 80 4 9
-2.673669e-01 -1.824443e+00 -1.233519e+01 130 110 117
1.799603e+00 -1.910495e+00 -1.209896e+01 69 55 55
5.121170e-01 -4.717641e+00 -1.398523e+01 4 4 4
1.515198e-01 1.001459e+00 -5.533386e+00 169 18 30
1.497727e-03 7.484073e-01 -5.411250e+00 91 1 7
1.665337e+00 -1.962285e+00 -1.229520e+01 115 90 66
2.388379e+00 1.311977e+00 -5.271369e+00 199 175 113
3.907447e-01 4.997052e-01 -5.385125e+00 72 3 2
7.645625e-01 1.114940e-01 -5.644615e+00 238 231 239
-6.911116e-01 5.715428e-01 -4.601510e+00 161 190 228
-8.539216e-01 -3.681985e-02 -4.907181e+00 242 188 200
7.020233e-01 3.016042e-01 -5.544958e+00 203 29 53
7.020233e-01 3.016042e-01 -5.544958e+00 203 29 53
2.283686e+00 -1.531738e+00 -5.670734e+00 215 38 66
4.874817e-01 3.160770e+00 -1.025984e+01 9 9 9
6.854052e-02 3.165631e+00 -1.051477e+01 8 8 8
1.979568e+00 2.217448e+00 -6.389642e+00 197 171 61
-6.631025e-02 2.265541e+00 -9.678403e+00 27 22 19
2.146154e+00 1.656794e+00 -5.952606e+00 218 182 97
8.363961e-01 1.531310e+00 -5.797331e+00 214 35 54
-2.080470e+00 2.102202e+00 -1.180643e+01 71 57 57
-2.805651e+00 2.201870e+00 -1.336172e+01 94 79 89
-2.706361e+00 1.898384e+00 -1.280838e+01 90 74 84
-2.825994e+00 1.862439e+00 -1.306385e+01 54 50 55
-9.340068e-01 8.455841e-01 -4.638991e+00 242 187 200
-9.561529e-01 8.066397e-01 -4.626396e+00 249 196 203
-9.711075e-01 7.527669e-01 -4.610915e+00 225 158 166
-8.566785e-01 7.474663e-01 -4.583247e+00 254 194 202
-6.786378e-01 7.502398e-01 -4.576675e+00 218 164 174
-6.806671e-01 6.991077e-01 -4.567060e+00 241 173 186
-5.996024e-01 6.933805e-01 -4.577430e+00 199 130 142
-9.611427e-01 6.422734e-01 -4.585422e+00 253 194 203
-8.791042e-01 6.317392e-01 -4.577817e+00 248 202 217
3.592431e-01 6.398281e-01 -5.362686e+00 155 106 126
2.363018e+00 6.809459e-01 -5.475083e+00 247 210 120
-9.032218e-01 5.008787e-01 -4.609137e+00 211 190 228
-5.420513e-01 5.189414e-01 -4.612088e+00 255 216 225
-5.970601e-01 4.077771e-01 -4.637854e+00 203 130 145
2.224917e+00 4.506806e-01 -5.469516e+00 242 192 94
-6.435208e-01 3.768432e-01 -4.624190e+00 218 145 162
-7.942516e-01 3.429809e-01 -4.647280e+00 248 196 208
-8.155867e-01 3.365205e-01 -4.659186e+00 229 165 184
-8.785745e-01 2.980744e-01 -4.696087e+00 253 203 211
-5.112720e-01 3.249590e-01 -4.578010e+00 248 202 215
-8.378752e-01 2.441500e-01 -4.682945e+00 253 193 205
-7.211732e-01 2.142052e-01 -4.594826e+00 255 203 216
-1.056630e+00 1.557252e-01 -4.892665e+00 255 201 209
5.682539e-01 1.188675e-01 -5.748906e+00 249 55 98
-8.514616e-01 1.728963e-01 -4.659147e+00 255 201 212
-4.045193e-01 1.881657e-01 -4.665011e+00 250 200 209
-8.059379e-01 1.334584e-01 -4.645336e+00 236 173 188
-4.060931e-01 1.219024e-01 -4.700324e+00 243 205 211
9.485521e-01 5.529525e-02 -5.585077e+00 203 153 169
-7.626201e-01 9.285525e-02 -4.656209e+00 251 208 218
-9.311266e-01 -2.331692e-02 -4.942860e+00 255 219 224
5.186756e-01 -1.527653e-01 -5.966451e+00 166 28 34
1.201706e+00 -4.761742e-02 -5.316590e+00 238 174 181
-8.471901e-01 -1.141177e-01 -4.986963e+00 118 141 191
-8.399818e-01 -1.586897e-01 -5.031430e+00 155 204 236
1.146850e+00 -2.630909e-01 -5.347601e+00 164 92 104
-8.023603e-01 -3.151707e-01 -5.213618e+00 237 189 200
1.044383e+00 -2.689564e-01 -5.334887e+00 213 141 155
2.167791e+00 -4.229487e-01 -6.021527e+00 206 172 45
1.911633e+00 -2.080187e+00 -1.172706e+01 74 49 49
2.082955e+00 -7.735623e-01 -6.198407e+00 196 170 45
2.082955e+00 -7.735623e-01 -6.198407e+00 196 170 45
2.118555e+00 -7.880883e-01 -6.136851e+00 200 172 44
2.271773e+00 -7.276850e-01 -5.760219e+00 239 211 71
2.011168e+00 -2.382255e+00 -1.144161e+01 118 101 112
2.314164e+00 -2.258816e+00 -1.065212e+01 141 131 142
1.664809e+00 -2.862666e+00 -1.263108e+01 74 61 72
2.224801e+00 -2.289863e+00 -1.071818e+01 97 81 93
1.232439e+00 -3.238683e+00 -1.358129e+01 74 63 73
1.354007e+00 -3.374582e+00 -1.347692e+01 71 60 76
1.990124e+00 -2.848192e+00 -1.158869e+01 90 83 99
1.990124e+00 -2.848192e+00 -1.158869e+01 90 83 99
2.022209e+00 -2.819126e+00 -1.145152e+01 132 121 135
1.274117e+00 -3.665481e+00 -1.366112e+01 104 94 108
1.274117e+00 -3.665481e+00 -1.366112e+01 104 94 108
2.320991e+00 -2.717214e+00 -1.063320e+01 80 68 82
2.468450e+00 -2.589799e+00 -1.016007e+01 128 115 128
2.285458e+00 -2.941910e+00 -1.073823e+01 76 68 83
1.835790e+00 -3.452471e+00 -1.210329e+01 78 64 77
2.252506e+00 -3.189220e+00 -1.086838e+01 116 111 129
2.171392e+00 -1.381357e+00 -5.935475e+00 231 180 51
2.553729e+00 -2.944190e+00 -9.999676e+00 140 131 151
1.769727e+00 -4.246977e+00 -1.242232e+01 106 103 119
2.847920e+00 -3.084029e+00 -9.223144e+00 105 97 120
-1.155139e+00 3.132616e+00 -1.092090e+01 80 33 9
-3.725021e+00 3.135818e+00 -1.240794e+01 124 114 131
6.812544e-01 2.887183e+00 -1.030097e+01 13 12 11
2.188846e+00 1.917262e+00 -5.718757e+00 216 173 52
2.188846e+00 1.917262e+00 -5.718757e+00 216 173 52
-6.802647e-01 2.161313e+00 -9.574899e+00 31 28 21
2.163003e+00 1.692022e+00 -5.861158e+00 223 187 110
2.337503e+00 1.588300e+00 -5.433254e+00 226 177 54
2.169627e+00 1.586460e+00 -5.887243e+00 217 170 66
2.184537e+00 1.593117e+00 -5.919437e+00 217 170 66
2.318633e+00 1.542393e+00 -5.500674e+00 223 180 77
3.587480e-02 9.310418e-01 -5.576465e+00 132 3 7
-1.069829e+00 6.866921e-01 -4.641775e+00 250 191 198
1.203190e+00 6.972665e-01 -5.580728e+00 216 40 62
1.252269e+00 6.998546e-01 -5.575807e+00 209 40 57
-6.233020e-01 6.032073e-01 -4.583847e+00 254 206 219
4.192013e-01 5.775047e-01 -5.361883e+00 249 53 103
-6.021529e-01 5.190703e-01 -4.597224e+00 255 208 220
-6.365212e-01 4.878178e-01 -4.569047e+00 252 200 208
2.123051e+00 4.750443e-01 -6.049046e+00 229 187 62
-6.895923e-01 3.538003e-01 -4.642323e+00 255 207 215
-8.152379e-01 3.147936e-01 -4.655919e+00 255 213 219
-8.523428e-01 3.014727e-01 -4.671681e+00 241 173 188
-8.946477e-01 2.763967e-01 -4.698847e+00 254 201 212
-1.044269e+00 2.316290e-01 -4.851930e+00 255 220 228
-7.475719e-01 2.413620e-01 -4.625784e+00 244 188 197
-1.154591e+00 1.271056e-01 -4.899127e+00 251 199 212
1.681232e+00 1.964100e-01 -5.268242e+00 198 148 84
-3.681495e-01 1.185413e-01 -4.716190e+00 252 212 219
4.591367e-01 -1.253285e-01 -5.952664e+00 223 38 59
4.910846e-01 -1.690721e-01 -5.910830e+00 211 37 60
1.227021e+00 -6.107720e-02 -5.321933e+00 156 83 90
6.598296e-01 -1.980813e-01 -5.574068e+00 171 20 27
2.444429e+00 -2.906110e-01 -5.316679e+00 252 217 234
2.139965e+00 -5.105432e-01 -6.104987e+00 246 218 83
2.059442e+00 -7.528200e-01 -6.286326e+00 179 192 148
2.053762e+00 -7.503048e-01 -6.273640e+00 179 192 148
1.903783e+00 -2.213822e+00 -1.180900e+01 82 63 67
2.265249e+00 -2.212662e+00 -1.074446e+01 152 150 170
2.210857e+00 -3.447686e+00 -1.103178e+01 85 72 86
2.933486e+00 -2.992206e+00 -8.908101e+00 83 71 88
-3.838349e-01 2.309572e+00 -9.675359e+00 33 24 19
-1.281019e+00 2.470884e+00 -1.112702e+01 56 34 31
-2.130664e-02 2.317035e+00 -9.731571e+00 42 29 23
2.197547e+00 1.865716e+00 -6.176679e+00 209 157 57
8.072643e-01 1.656718e+00 -5.707500e+00 171 22 33
2.191216e+00 1.747585e+00 -5.823352e+00 222 192 117
-1.723094e+00 2.107727e+00 -1.143890e+01 110 86 91
-2.532510e+00 2.114071e+00 -1.252096e+01 92 77 84
2.297537e+00 1.542890e+00 -5.527041e+00 229 203 130
2.277911e+00 1.519718e+00 -5.553115e+00 225 174 64
5.136906e-01 1.360505e+00 -5.776373e+00 182 29 36
-2.731083e+00 1.751866e+00 -1.274509e+01 88 72 81
1.622409e-01 1.202501e+00 -5.618300e+00 115 4 7
1.622409e-01 1.202501e+00 -5.618300e+00 115 4 7
8.607143e-02 9.192856e-01 -5.576571e+00 215 36 59
-7.899500e-01 7.949196e-01 -4.588027e+00 185 120 134
-1.048235e-01 7.698335e-01 -5.426000e+00 121 6 8
-9.072858e-01 6.760163e-01 -4.571164e+00 253 207 214
2.074123e+00 6.194559e-01 -6.192069e+00 208 171 108
-4.603108e-01 4.350332e-01 -4.627752e+00 149 91 108
2.029045e+00 2.992947e-01 -6.350643e+00 89 52 3
-9.154584e-01 2.980376e-01 -4.702532e+00 233 171 184
-1.070651e+00 1.738811e-01 -4.876168e+00 255 206 215
3.950887e-01 1.531371e-01 -5.630930e+00 236 58 108
-6.259694e-01 2.099408e-01 -4.569387e+00 254 216 224
9.021372e-01 8.225871e-03 -5.615315e+00 199 158 169
-1.032496e+00 1.051148e-02 -4.945337e+00 252 231 231
4.164709e-01 -2.719933e-01 -5.977315e+00 242 53 90
2.116924e+00 -4.953112e-01 -6.158769e+00 242 217 83
2.126992e+00 -5.540026e-01 -6.085232e+00 243 216 78
2.710725e+00 -2.881225e+00 -9.425042e+00 150 139 151
2.744128e+00 -2.916673e+00 -9.521051e+00 150 139 151
2.088579e+00 -3.740073e+00 -1.140795e+01 125 111 126
2.607378e+00 -3.324393e+00 -1.004755e+01 128 117 139
2.181158e-01 2.557064e+00 -9.837707e+00 23 19 18
6.008185e-01 1.618721e+00 -5.780293e+00 94 6 3
2.211108e+00 1.730593e+00 -5.744125e+00 221 192 94
8.519255e-01 1.595188e+00 -5.688883e+00 209 36 63
2.313793e+00 1.600288e+00 -5.469998e+00 231 171 56
2.107228e-01 1.351817e+00 -5.706465e+00 176 22 28
-9.257363e-01 7.271339e-01 -4.558208e+00 250 194 206
-5.596524e-01 7.080402e-01 -4.616164e+00 252 193 204
-1.034218e+00 6.345163e-01 -4.622735e+00 246 186 197
-9.628285e-01 5.796177e-01 -4.584744e+00 255 185 198
-8.482955e-01 5.773744e-01 -4.571225e+00 221 236 249
-5.555778e-01 5.899572e-01 -4.600951e+00 249 200 213
-9.327275e-01 5.547280e-01 -4.569525e+00 253 214 221
-1.102855e+00 5.008697e-01 -4.690511e+00 255 212 217
-6.566270e-01 5.041818e-01 -4.609212e+00 233 187 217
-9.409321e-01 4.622902e-01 -4.692904e+00 251 211 215
2.383388e+00 5.200819e-01 -5.411538e+00 247 190 62
-1.042921e+00 2.767815e-01 -4.778144e+00 253 191 202
8.148626e-01 1.626296e-01 -5.668878e+00 183 39 60
1.180217e+00 -2.321992e-01 -5.348755e+00 242 184 200
7.561963e-01 -2.215155e+00 -1.203408e+01 151 126 124
1.652230e+00 -3.904500e+00 -1.265515e+01 101 96 113
2.596123e+00 -1.460750e+00 -5.567908e+00 197 169 145
1.636356e-01 2.755701e+00 -1.008415e+01 37 28 26
6.103658e-01 1.700239e+00 -5.847083e+00 190 33 44
6.103658e-01 1.700239e+00 -5.847083e+00 190 33 44
-1.847170e+00 2.513454e+00 -1.258628e+01 76 59 65
2.137863e-01 1.189644e+00 -5.583656e+00 128 9 12
2.137863e-01 1.189644e+00 -5.583656e+00 128 9 12
-2.834135e+00 1.009995e+00 -1.261332e+01 117 95 105
9.032393e-01 8.470214e-01 -5.594129e+00 200 33 51
9.619149e-01 4.805728e-01 -5.498520e+00 182 33 66
-7.307888e-01 2.849019e-01 -4.615454e+00 226 160 169
-9.450429e-01 -5.900962e-03 -4.904850e+00 252 217 221
-3.889307e-01 -8.632776e-02 -4.974997e+00 250 209 218
7.341575e-01 -4.399226e+00 -1.399695e+01 14 14 14
-1.543729e-02 2.458365e+00 -9.873563e+00 13 12 11
7.471143e-01 1.551196e+00 -5.759654e+00 223 41 66
-2.715225e+00 2.037771e+00 -1.301739e+01 95 79 89
2.763629e-01 8.070682e-01 -5.510644e+00 231 42 70
1.307974e+00 1.551360e-01 -5.452853e+00 133 25 23
2.300196e+00 1.149067e-01 -5.667305e+00 239 217 139
2.247705e+00 -1.036243e+00 -5.838304e+00 231 223 104
-4.501567e+00 -2.507426e-01 -1.738088e+01 141 133 148
-1.047135e+00 3.984817e-01 -4.770001e+00 250 208 217
1.319024e+00 4.157904e-01 -5.811432e+00 204 40 55
-3.321203e+00 3.444823e+00 -1.801619e+01 51 42 44
-2.408467e+00 1.669420e+00 -1.214759e+01 123 105 114
2.784917e-01 7.249358e-01 -5.424722e+00 71 3 8
-3.748029e-01 -2.234124e-01 -5.239353e+00 159 133 138
1.562347e+00 3.978093e-01 -5.906792e+00 205 40 50
4.976246e-01 1.065019e+00 -5.562015e+00 142 28 53
-1.053682e+00 7.802139e-01 -4.637738e+00 223 169 184
-6.935866e-01 7.266967e-01 -4.569716e+00 224 164 179
-6.935866e-01 7.266967e-01 -4.569716e+00 224 164 179
7.964487e-02 8.533852e-01 -5.542315e+00 175 25 40
-5.412451e-01 6.705334e-01 -4.607082e+00 236 170 182
2.410444e+00 7.433402e-01 -5.359138e+00 218 186 116
2.042363e+00 -3.327748e+00 -1.150676e+01 55 45 62
2.929456e-01 9.281202e-01 -5.518075e+00 170 20 31
1.964785e+00 -3.954650e+00 -1.180854e+01 71 67 87
4.820442e-01 3.055129e+00 -1.040328e+01 13 13 11
-7.215193e-02 2.266602e+00 -9.701720e+00 27 22 19
-5.934162e-01 2.163742e+00 -9.702527e+00 35 31 26
-1.434978e+00 2.273953e+00 -1.120735e+01 77 51 52
7.319735e-01 1.598548e+00 -5.758323e+00 202 33 55
-2.242916e+00 2.342914e+00 -1.274035e+01 79 64 69
-2.282812e+00 2.233321e+00 -1.266158e+01 79 65 72
-1.291646e-01 1.946691e+00 -9.615347e+00 27 25 20
-2.010298e+00 1.828673e+00 -1.151588e+01 98 77 87
1.226300e+00 1.282875e+00 -5.269385e+00 162 116 127
2.322156e+00 1.362153e+00 -5.490067e+00 228 179 57
2.322156e+00 1.362153e+00 -5.490067e+00 228 179 57
4.517105e-01 1.052232e+00 -5.556206e+00 221 200 223
4.106024e-01 1.038410e+00 -5.550895e+00 238 211 231
5.819181e-01 1.050885e+00 -5.567520e+00 162 28 49
4.589299e-01 9.120111e-01 -5.539955e+00 229 156 176
5.448332e-01 8.537637e-01 -5.534245e+00 223 192 208
5.448332e-01 8.537637e-01 -5.534245e+00 223 192 208
-9.596174e-01 6.737182e-01 -4.570761e+00 219 151 163
-6.466282e-01 6.684441e-01 -4.565605e+00 246 186 195
-9.158412e-01 4.793135e-01 -4.608357e+00 246 201 220
-5.528510e-01 3.543592e-01 -4.580662e+00 248 195 208
-8.051099e-01 1.336981e-01 -4.644233e+00 236 173 188
7.839653e-01 -1.503418e-01 -5.450669e+00 200 36 61
7.839653e-01 -1.503418e-01 -5.450669e+00 200 36 61
7.709876e-01 -1.792820e-01 -5.451807e+00 223 44 69
5.809456e-01 -2.393515e-01 -5.637863e+00 194 32 47
2.574953e+00 -3.340347e+00 -1.004948e+01 123 119 149
1.575057e+00 2.340458e+00 -7.356389e+00 114 95 82
1.575057e+00 2.340458e+00 -7.356389e+00 114 95 82
1.800817e+00 2.113854e+00 -6.754467e+00 102 69 19
1.814672e+00 1.982790e+00 -6.865198e+00 167 125 51
7.424196e-01 1.621807e+00 -5.764426e+00 168 15 27
-2.437288e+00 2.260784e+00 -1.294345e+01 84 72 76
2.307222e+00 1.583564e+00 -5.523074e+00 229 198 126
-5.649830e-01 1.864277e+00 -9.831902e+00 38 32 32
-6.013017e-01 1.695279e+00 -9.954946e+00 15 12 16
4.695588e-01 8.582703e-01 -5.544996e+00 222 198 216
2.351583e+00 7.080922e-01 -5.463462e+00 243 190 79
2.116188e+00 5.870997e-01 -6.143855e+00 217 185 116
2.195495e+00 4.460492e-01 -6.031418e+00 242 203 65
-1.051857e+00 1.347152e-01 -4.884078e+00 251 183 194
1.923808e+00 -3.948858e+00 -1.192405e+01 69 56 66
1.632550e+00 -4.627261e+00 -1.294080e+01 92 88 103
1.285300e+00 2.438651e+00 -7.883247e+00 19 15 16
2.247779e+00 1.800705e+00 -5.676610e+00 223 195 54
3.609337e-01 1.472456e+00 -5.754368e+00 171 22 28
2.189518e+00 1.566547e+00 -5.853605e+00 219 169 54
2.189518e+00 1.566547e+00 -5.853605e+00 219 169 54
5.335028e-01 1.408894e+00 -5.793050e+00 166 15 23
-3.136376e-01 1.694920e+00 -9.407486e+00 6 6 4
-6.351851e-01 1.732884e+00 -9.944062e+00 88 78 87
1.478290e+00 1.241346e+00 -5.274288e+00 185 130 132
3.462920e-01 9.973804e-01 -5.526103e+00 228 43 77
8.389934e-01 7.039569e-01 -5.553401e+00 236 46 81
4.136856e-02 6.113543e-01 -5.372617e+00 250 236 245
2.257559e+00 4.573127e-01 -5.791318e+00 244 188 79
1.690716e+00 -4.515313e+00 -1.275435e+01 65 58 69
-4.958887e-01 2.065020e+00 -9.733742e+00 21 21 21
-4.958887e-01 2.065020e+00 -9.733742e+00 21 21 21
-3.802122e-01 1.954938e+00 -9.762605e+00 49 44 44
7.028889e-01 1.385202e+00 -5.914493e+00 68 1 0
5.041048e-01 1.171990e+00 -5.594375e+00 175 30 40
-6.525329e-02 9.362676e-01 -5.609848e+00 94 3 3
2.423920e-02 8.664001e-01 -5.545422e+00 191 31 45
1.553226e-01 5.781544e-01 -5.365521e+00 105 39 62
-4.916521e-01 4.204845e-01 -4.609067e+00 232 183 194
2.421843e+00 -5.393065e-01 -5.342482e+00 255 63 99
2.421843e+00 -5.393065e-01 -5.342482e+00 255 63 99
-7.052903e-01 2.205206e+00 -9.667752e+00 32 27 24
6.158833e-01 1.167895e+00 -5.652485e+00 91 1 0
1.012183e-03 7.586720e-01 -5.452505e+00 107 3 7
1.901144e+00 -3.962354e+00 -1.198212e+01 72 59 70
2.292412e+00 1.166695e-01 -5.652971e+00 239 217 139
7.619669e-01 1.132476e+00 -5.670694e+00 178 24 37
1.594670e+00 2.802815e+00 -7.239971e+00 141 136 152
1.985686e-01 8.522649e-01 -5.471653e+00 245 48 86
1.533989e-01 8.868726e-01 -5.517328e+00 239 45 80
2.206207e+00 1.900580e+00 -5.734310e+00 178 145 47
9.813442e-01 1.565404e+00 -5.678383e+00 187 118 131
1.256025e+00 1.408273e+00 -5.377796e+00 109 71 84
-2.491495e+00 2.223014e+00 -1.287215e+01 35 28 35
-9.344255e-01 8.643820e-01 -4.633564e+00 166 115 134
1.709427e-01 1.076381e+00 -5.547826e+00 134 8 14
-9.929774e-01 8.016719e-01 -4.624485e+00 182 125 142
5.709346e-01 9.699623e-01 -5.553885e+00 199 126 145
-1.868176e+00 5.045006e-01 -1.158333e+01 83 66 71
-2.299312e+00 3.793353e-01 -1.222315e+01 71 59 63
-6.012945e-01 3.867279e-01 -4.621920e+00 195 136 151
-5.487745e-01 2.958314e-01 -4.573645e+00 225 168 177
2.425217e+00 4.079579e-01 -5.330918e+00 208 155 67
2.484987e+00 2.226828e-01 -5.129447e+00 241 160 171
2.484987e+00 2.226828e-01 -5.129447e+00 241 160 171
2.485178e+00 1.794872e-01 -5.148786e+00 228 169 187
1.347158e+00 6.585053e-02 -5.283625e+00 197 135 143
2.458207e+00 4.404412e-03 -5.231281e+00 193 81 109
2.458207e+00 4.404412e-03 -5.231281e+00 193 81 109
6.869835e-01 -1.647645e-01 -5.550081e+00 177 27 37
-2.068688e+00 -1.190392e+00 -1.216973e+01 43 38 48
2.481359e+00 -2.084203e-01 -5.153247e+00 215 46 50
2.441534e+00 -2.335220e-01 -5.283095e+00 230 188 202
1.595285e+00 -3.137908e+00 -1.285647e+01 30 25 32
2.739688e+00 -2.838947e+00 -9.437469e+00 41 31 41
2.367009e+00 -3.596538e+00 -1.064696e+01 21 19 22
7.944623e-01 1.706298e+00 -5.756449e+00 132 12 18
5.671297e-01 9.994465e-01 -5.558763e+00 134 8 23
3.744075e-01 9.089249e-01 -5.526056e+00 150 23 40
-9.835867e-01 6.531716e-01 -4.586766e+00 177 111 130
2.416732e+00 1.109600e+00 -5.230965e+00 201 168 55
-1.848895e+00 5.542928e-01 -1.153940e+01 38 29 37
-1.848895e+00 5.542928e-01 -1.153940e+01 38 29 37
-2.028935e+00 5.053894e-01 -1.182175e+01 87 67 76
-1.944462e+00 4.967967e-01 -1.168875e+01 41 29 37
2.441560e+00 6.722666e-01 -5.170082e+00 209 178 113
2.375356e+00 6.527506e-01 -5.490733e+00 204 147 65
-2.823888e+00 2.370386e-02 -1.313814e+01 68 56 58
-7.313885e-01 1.686707e-01 -4.609210e+00 228 166 179
2.488087e+00 2.964306e-01 -5.137422e+00 200 66 98
2.488087e+00 2.964306e-01 -5.137422e+00 200 66 98
2.477678e+00 2.040247e-01 -5.162127e+00 215 40 62
2.442139e+00 4.843673e-02 -5.271444e+00 223 170 176
2.442139e+00 4.843673e-02 -5.271444e+00 223 170 176
2.430215e+00 -1.792500e-02 -5.272334e+00 211 46 62
6.689469e-01 -3.238000e-01 -5.510228e+00 192 33 43
2.421338e+00 -3.026747e-01 -5.356231e+00 215 182 184
2.126435e+00 -7.082414e-01 -6.106422e+00 159 130 37
2.126435e+00 -7.082414e-01 -6.106422e+00 159 130 37
2.512591e+00 -3.460397e+00 -1.019467e+01 59 57 71
2.129888e+00 1.821938e+00 -5.983820e+00 165 118 31
2.180257e+00 1.740895e+00 -5.900969e+00 175 125 48
1.972748e-01 1.107383e+00 -5.560322e+00 152 16 23
4.220802e-01 1.117846e+00 -5.556066e+00 197 170 184
4.220802e-01 1.117846e+00 -5.556066e+00 197 170 184
-3.034035e+00 1.140106e+00 -1.285848e+01 59 46 53
2.464287e+00 9.398246e-01 -5.345237e+00 204 172 112
-6.730157e-01 4.788524e-01 -4.613597e+00 170 139 172
-2.222203e+00 3.884836e-01 -1.211599e+01 30 22 27
-2.222203e+00 3.884836e-01 -1.211599e+01 30 22 27
-3.076095e+00 -6.087759e-01 -1.497553e+01 105 101 122
2.442264e+00 -5.893621e-02 -5.284405e+00 222 187 200
2.150392e+00 -4.658776e-01 -6.076868e+00 213 182 65
2.157791e+00 -4.579684e-01 -6.013414e+00 147 117 21
2.157791e+00 -4.579684e-01 -6.013414e+00 147 117 21
2.110449e+00 -5.797545e-01 -6.151253e+00 160 132 34
2.134427e+00 -6.631348e-01 -6.098081e+00 161 135 41
-8.927644e-01 7.106102e-01 -4.563270e+00 158 96 116
-2.161675e+00 4.899964e-01 -1.201322e+01 84 63 72
2.479335e+00 -4.667837e-02 -5.193340e+00 216 38 58
2.429344e+00 -4.632210e-01 -5.324083e+00 217 35 60
2.443458e+00 -3.603557e+00 -1.051156e+01 27 19 23
2.372576e+00 6.357630e-01 -5.467186e+00 210 147 50
2.372576e+00 6.357630e-01 -5.467186e+00 210 147 50
2.151170e+00 5.116268e-01 -6.066598e+00 192 128 47
2.474581e+00 1.714121e-01 -5.179557e+00 218 188 207
2.424737e+00 -2.590521e-03 -5.294256e+00 216 39 52
2.446341e+00 -1.353394e-01 -5.275605e+00 218 180 191
2.446341e+00 -1.353394e-01 -5.275605e+00 218 180 191
2.468300e+00 -1.886914e-01 -5.240301e+00 216 38 57
2.455777e+00 -2.641343e-01 -5.260714e+00 213 37 55
2.413190e+00 -2.904755e-01 -5.308591e+00 207 168 185
2.413190e+00 -2.904755e-01 -5.308591e+00 207 168 185
2.330532e+00 1.531392e+00 -5.437331e+00 187 165 107
2.338718e+00 1.530397e+00 -5.440116e+00 187 165 107
2.355823e+00 1.367324e+00 -5.359131e+00 192 165 110
2.502650e+00 -1.606037e-01 -5.455901e+00 217 37 42
2.436730e+00 -2.163574e-01 -5.304317e+00 228 157 175
2.436730e+00 -2.163574e-01 -5.304317e+00 228 157 175
-1.295896e+00 2.947993e+00 -1.120874e+01 66 29 12
2.268416e+00 -3.797309e-01 -5.207408e+00 218 61 91
2.365349e+00 4.022854e-01 -5.486327e+00 217 187 54
2.048075e+00 -8.064136e-01 -6.223786e+00 214 192 86
-6.986489e-01 2.183639e+00 -9.640718e+00 21 20 18
-1.578401e+00 3.273373e+00 -1.089269e+01 78 32 13
-5.935222e-01 2.116607e+00 -9.679634e+00 16 14 16
4.945372e-01 -3.500499e-01 -5.857590e+00 222 45 73
2.259845e+00 1.690679e+00 -5.553339e+00 226 197 60
-1.138483e+00 3.074246e+00 -1.093367e+01 54 33 14
-1.138483e+00 3.074246e+00 -1.093367e+01 54 33 14
-4.859198e-01 2.122681e+00 -9.662524e+00 26 22 21
2.486304e+00 1.803178e-01 -5.150150e+00 228 169 187
2.471802e+00 1.384239e-01 -5.189874e+00 197 85 114
2.451247e+00 6.680359e-02 -5.247209e+00 205 73 89
2.455278e+00 -4.570865e-02 -5.249829e+00 199 78 111
2.344311e+00 -2.018863e-01 -5.569624e+00 174 144 24
2.486176e+00 -1.696480e-01 -5.174248e+00 211 63 30
2.200212e+00 -6.857694e-01 -5.951738e+00 201 171 49
2.093786e+00 -8.339745e-01 -6.201345e+00 207 177 63
2.277773e+00 -7.735937e-01 -5.752198e+00 176 148 33
2.277773e+00 -7.735937e-01 -5.752198e+00 176 148 33
-1.449912e+00 3.058567e+00 -1.107764e+01 67 30 10
-2.375503e+00 3.009256e+00 -1.162589e+01 80 73 84
2.433054e+00 9.807679e-01 -5.340843e+00 199 145 59
2.431773e+00 9.283960e-01 -5.362405e+00 201 149 62
2.431773e+00 9.283960e-01 -5.362405e+00 201 149 62
2.168935e+00 -1.907189e-01 -6.027349e+00 164 133 27
2.168935e+00 -1.907189e-01 -6.027349e+00 164 133 27
2.161773e+00 -4.915524e-01 -6.043347e+00 154 124 26
2.125747e+00 -5.293548e-01 -6.133561e+00 165 138 36
2.123061e+00 -5.297746e-01 -6.132279e+00 165 138 36
2.497048e+00 1.530037e-01 -5.143353e+00 215 42 79
2.153589e+00 -4.251678e-01 -6.060068e+00 215 184 60
2.115672e+00 -5.810571e-01 -6.159281e+00 160 132 34
2.300969e+00 -7.491954e-01 -5.728612e+00 208 182 47
2.000015e+00 -1.132505e+00 -6.334198e+00 200 177 59
1.848257e+00 -9.557541e-01 -6.681623e+00 194 166 54
2.123112e+00 -8.940018e-01 -6.140970e+00 206 178 52
2.435289e+00 9.897191e-02 -5.263004e+00 215 36 53
2.468667e+00 9.041107e-02 -5.210439e+00 225 167 180
2.468667e+00 9.041107e-02 -5.210439e+00 225 167 180
2.480856e+00 2.411144e-01 -5.150563e+00 249 68 108
-5.137839e-01 1.988338e+00 -9.759660e+00 38 37 37
-8.043868e-01 2.203656e+00 -9.653804e+00 33 32 29
2.540059e+00 3.493393e-01 -4.991106e+00 254 69 89
2.567910e+00 4.459629e-01 -4.937667e+00 225 110 46
-7.052541e-01 9.893909e-01 -9.974904e+00 67 52 61
-6.324216e-01 1.985684e+00 -9.703846e+00 16 14 15
2.495153e+00 -7.439985e-02 -5.144576e+00 225 122 47
2.482554e+00 8.236381e-02 -5.137403e+00 255 63 117
2.492017e+00 1.678888e-01 -5.108480e+00 255 64 109
2.524276e+00 2.481538e-01 -5.032337e+00 248 160 64
2.033787e+00 -1.104436e+00 -6.243090e+00 242 214 74
2.547576e+00 4.007357e-01 -4.981080e+00 250 148 75
2.570489e+00 5.651586e-01 -4.931536e+00 255 180 89
2.421422e+00 1.358236e+00 -5.195999e+00 238 186 71
2.478961e+00 4.241347e-02 -5.242643e+00 234 166 193
2.449322e+00 2.464380e-01 -5.198878e+00 255 60 94
2.431282e+00 9.938069e-01 -5.213661e+00 237 218 149
2.431282e+00 9.938069e-01 -5.213661e+00 237 218 149
-4.468571e+00 3.688022e+00 -1.159828e+01 132 77 67
-4.492512e+00 3.653225e+00 -1.162179e+01 126 52 29
-6.595303e-01 -1.328071e-01 -4.205010e+00 141 184 220
-4.798670e+00 3.672333e+00 -1.161152e+01 127 50 20
2.196593e+00 -5.990409e-02 -5.959347e+00 218 185 53
-1.692394e+00 3.203430e+00 -1.091702e+01 90 46 19
2.169479e+00 -1.384240e+00 -5.931755e+00 231 180 51
-3.452711e+00 3.543664e+00 -1.171801e+01 172 75 38
-1.842419e+00 3.428473e+00 -1.066921e+01 35 20 25
-1.015271e+00 5.891851e-02 -4.512906e+00 253 231 233
1.206853e-01 3.155122e+00 -1.017598e+01 4 4 4
2.414760e+00 -8.712556e-02 -5.318181e+00 219 35 59
2.375460e+00 -5.780749e-01 -5.454111e+00 217 36 52
-1.629486e+00 1.270597e+01 -1.037908e+01 32 20 21
1.873894e+00 9.404593e+00 -9.030194e+00 19 20 35
-6.100370e-01 1.185945e+01 -1.046132e+01 46 19 9
-5.939736e-01 1.143853e+01 -1.053347e+01 79 67 81
3.132407e+00 5.578227e+00 -7.523060e+00 112 99 116
-6.553134e-01 -1.701627e-01 -5.006898e+00 164 184 225
3.884225e-01 3.423338e-01 -5.606431e+00 234 43 74
-2.691265e+00 5.497239e+00 -1.028090e+01 12 11 11
-2.601827e+00 5.408699e+00 -1.050652e+01 7 7 7
-2.201726e+00 5.323193e+00 -1.057713e+01 10 13 16
-2.269644e+00 5.349241e+00 -1.074596e+01 15 16 18
-2.595994e+00 5.348100e+00 -1.073217e+01 7 7 6
-6.775523e-01 3.536810e+00 -9.562034e+00 45 52 77
-6.775523e-01 3.536810e+00 -9.562034e+00 45 52 77
-2.107496e+00 5.235140e+00 -1.102880e+01 7 7 7
-2.412518e+00 5.186607e+00 -1.118308e+01 7 7 7
-2.337178e+00 5.179990e+00 -1.122816e+01 5 5 5
-2.927830e+00 5.199703e+00 -1.127396e+01 8 8 10
-1.470889e-01 3.300928e+00 -9.999593e+00 41 38 21
-1.470889e-01 3.300928e+00 -9.999593e+00 41 38 21
-6.712871e-02 3.275210e+00 -1.003861e+01 33 31 18
1.879519e+00 -9.270796e-01 -6.621161e+00 56 25 0
1.838056e+00 -1.108341e+00 -6.679425e+00 61 40 0
-1.689801e+00 3.073677e+00 -1.123758e+01 97 35 12
-1.649799e+00 2.901765e+00 -1.139953e+01 18 13 10
-2.313112e+00 2.986200e+00 -1.157561e+01 21 20 20
1.683475e+00 9.902848e+00 -8.333884e+00 3 12 19
2.755071e+00 9.518524e+00 -8.278951e+00 47 36 44
2.029949e+00 9.673271e+00 -8.398862e+00 3 36 71
2.801733e+00 8.520421e+00 -8.090567e+00 47 36 36
6.064274e-01 1.122379e+01 -9.512647e+00 68 25 35
1.993152e-01 1.217247e+01 -9.981857e+00 24 14 13
2.786761e+00 8.162041e+00 -8.151704e+00 94 82 96
2.928371e+00 7.588430e+00 -7.902313e+00 105 98 117
-8.770646e-01 1.313606e+01 -1.056773e+01 88 34 36
2.817203e+00 8.068312e+00 -8.171749e+00 54 44 49
3.123269e+00 6.542365e+00 -7.412056e+00 119 110 130
1.856790e+00 9.421483e+00 -8.916679e+00 65 36 54
3.336126e+00 5.538777e+00 -6.950948e+00 114 102 120
2.414342e+00 1.695145e+00 -5.069743e+00 129 103 40
-4.357900e-01 1.192470e+01 -1.048724e+01 8 7 6
3.039277e+00 5.969978e+00 -7.677260e+00 52 39 40
-2.333639e-01 1.141893e+01 -1.074154e+01 37 53 76
-1.232482e-02 1.027017e+01 -1.122529e+01 24 18 23
2.431618e+00 -2.979616e-01 -5.299584e+00 243 201 214
-3.465384e-02 2.928307e-01 -5.495339e+00 199 165 176
-3.465384e-02 2.928307e-01 -5.495339e+00 199 165 176
2.426025e+00 -3.533102e-01 -5.317332e+00 241 188 201
-7.649378e-01 -2.745310e-01 -5.125484e+00 241 237 249
-8.241815e-01 -2.799649e-01 -5.147734e+00 224 154 168
1.308864e-02 2.426346e-01 -5.812568e+00 193 31 45
-1.917476e+00 5.362211e+00 -1.076432e+01 7 12 16
-1.812615e+00 5.301781e+00 -1.075320e+01 1 46 84
-1.812615e+00 5.301781e+00 -1.075320e+01 1 46 84
-2.657060e+00 5.341580e+00 -1.070276e+01 7 7 9
-6.733938e-01 3.512162e+00 -9.619562e+00 17 26 46
-2.771563e+00 5.255666e+00 -1.101828e+01 7 7 7
-6.031968e-01 3.503002e+00 -9.696791e+00 18 24 47
-5.587448e-01 3.424183e+00 -9.693364e+00 16 22 36
1.628165e+00 -3.394105e-01 -7.270585e+00 198 174 58
1.178825e+00 4.436213e-01 -8.195495e+00 41 35 37
1.594869e+00 -3.297314e-01 -7.346214e+00 177 140 54
8.261742e-01 9.476444e-01 -8.825550e+00 57 11 10
1.028415e+00 6.244385e-01 -8.509945e+00 36 30 37
1.024655e+00 5.274386e-01 -8.539852e+00 36 28 39
1.424547e+00 -3.053704e-01 -7.722687e+00 32 15 0
9.579113e-01 4.819540e-01 -8.682852e+00 54 50 67
9.579113e-01 4.819540e-01 -8.682852e+00 54 50 67
9.322575e-01 5.134249e-01 -8.733893e+00 120 112 124
-2.292031e+00 3.103779e+00 -1.133586e+01 77 72 82
-2.292031e+00 3.103779e+00 -1.133586e+01 77 72 82
9.226568e-01 3.666094e-01 -8.782523e+00 138 133 150
9.226568e-01 3.666094e-01 -8.782523e+00 138 133 150
9.225756e-01 3.360321e-01 -8.789857e+00 140 136 153
8.694334e-01 2.547605e-01 -8.934796e+00 159 145 159
1.849153e+00 9.951104e+00 -8.343843e+00 13 18 31
1.745010e+00 9.758467e+00 -8.340857e+00 9 38 77
-1.286411e-01 1.325024e+01 -1.022758e+01 87 57 59
-1.054214e+00 1.224341e+01 -1.035905e+01 24 15 14
2.419725e+00 1.733938e+00 -5.043540e+00 211 182 61
2.431853e+00 1.644869e+00 -5.069118e+00 215 184 64
2.394118e+00 5.204618e-01 -5.399856e+00 226 170 69
-5.556131e-01 -1.327127e-01 -4.921532e+00 131 83 103
9.456399e-01 3.731861e-01 -5.576091e+00 188 28 40
-1.853589e+00 5.336625e+00 -1.069379e+01 2 42 67
-2.383890e+00 5.369842e+00 -1.070880e+01 10 19 25
-2.383890e+00 5.369842e+00 -1.070880e+01 10 19 25
-1.760992e+00 5.296785e+00 -1.087305e+01 3 41 72
-7.559854e-01 3.391652e+00 -9.870006e+00 10 9 10
2.088801e+00 -7.289427e-01 -6.193431e+00 162 135 20
1.221391e+00 5.790541e-01 -8.100951e+00 9 10 9
1.737809e+00 -4.669380e-01 -7.005382e+00 199 175 52
-2.345707e+00 3.430448e+00 -1.089012e+01 132 53 38
1.697565e+00 -5.675959e-01 -7.096169e+00 150 120 110
1.617387e+00 -4.083809e-01 -7.284353e+00 196 174 54
8.940412e-01 8.463742e-01 -8.733680e+00 81 71 73
8.940412e-01 8.463742e-01 -8.733680e+00 81 71 73
-1.643929e+00 3.091329e+00 -1.093656e+01 91 35 15
-1.549564e+00 3.084685e+00 -1.107555e+01 97 52 22
1.831520e+00 -1.066629e+00 -6.696566e+00 207 184 54
9.397612e-01 5.868298e-01 -8.700181e+00 106 98 118
8.738937e-01 5.605890e-01 -8.836849e+00 128 122 134
8.488071e-01 5.891300e-01 -8.901978e+00 130 122 140
8.488071e-01 5.891300e-01 -8.901978e+00 130 122 140
1.160608e+00 -8.306272e-02 -8.339637e+00 18 17 21
-2.693963e+00 3.053290e+00 -1.167330e+01 76 70 81
-2.693963e+00 3.053290e+00 -1.167330e+01 76 70 81
8.686571e-01 3.035989e-01 -8.917412e+00 148 141 159
2.952387e+00 6.690438e+00 -7.830223e+00 99 90 112
2.391783e+00 1.732026e+00 -5.178548e+00 148 126 73
2.294779e+00 1.578097e+00 -5.540827e+00 210 186 119
2.312179e+00 1.514207e+00 -5.507987e+00 209 160 61
2.312179e+00 1.514207e+00 -5.507987e+00 209 160 61
2.506466e+00 2.338457e-01 -5.097799e+00 234 52 77
2.473879e+00 1.707267e-01 -5.179353e+00 235 202 218
2.332329e+00 3.915952e-01 -5.575113e+00 220 197 130
-7.066092e-01 -1.508898e-01 -4.968308e+00 171 224 254
-7.692026e-01 -2.854579e-01 -5.151838e+00 225 158 170
2.186415e+00 -1.378958e-02 -5.958265e+00 188 155 47
2.186415e+00 -1.378958e-02 -5.958265e+00 188 155 47
1.312085e-01 1.386071e-01 -5.818428e+00 222 41 70
-2.242710e+00 5.385996e+00 -1.068441e+01 8 9 10
-2.018898e+00 5.280341e+00 -1.086934e+01 5 4 4
-2.384556e+00 5.242338e+00 -1.096408e+01 5 5 5
-2.384556e+00 5.242338e+00 -1.096408e+01 5 5 5
-2.219100e+00 5.256181e+00 -1.100115e+01 4 4 4
1.659009e+00 -3.165218e-01 -6.339298e+00 200 139 147
-1.661380e-01 2.400614e+00 -9.720271e+00 9 9 9
