ply
format ascii 1.0
element face 0
property list uchar int vertex_indices
element vertex 942
property float x
property float y
property float z
property uchar diffuse_red
property uchar diffuse_green
property uchar diffuse_blue
end_header
2.187209e+00 1.544830e+00 -5.819776e+00 191 165 78
-2.231923e+00 2.979395e+00 -1.145093e+01 19 17 20
4.381927e-01 1.445306e+00 -5.745349e+00 122 4 9
7.172414e-02 1.227355e+00 -5.739713e+00 139 13 17
1.101520e+00 1.277121e+00 -6.008166e+00 144 18 24
4.409966e-01 1.067103e+00 -5.559288e+00 169 21 31
-8.438559e-01 6.230139e-01 -4.624006e+00 243 231 243
8.197872e-01 6.730916e-01 -5.551109e+00 197 30 47
1.393343e+00 6.475411e-01 -5.795550e+00 104 9 6
8.761675e-01 -5.963101e-02 -5.583606e+00 51 9 18
2.118481e+00 -2.946480e+00 -1.099275e+01 51 48 60
2.741690e+00 -3.204189e+00 -9.302670e+00 72 50 58
1.042200e+00 7.323836e-01 -5.587052e+00 154 14 25
7.825753e-01 5.874490e-01 -5.517016e+00 183 26 44
7.825753e-01 5.874490e-01 -5.517016e+00 183 26 44
1.406266e+00 4.863061e-01 -5.802728e+00 118 9 11
1.349125e+00 4.459308e-01 -5.786096e+00 159 24 28
1.345256e+00 4.456763e-01 -5.769280e+00 159 24 28
7.773957e-01 -3.130479e-03 -5.679793e+00 80 4 9
-2.588525e-01 -1.798518e+00 -1.221221e+01 130 110 117
1.764451e+00 -1.885974e+00 -1.196911e+01 69 55 55
5.013750e-01 -4.590476e+00 -1.375784e+01 4 4 4
1.357353e-01 9.699085e-01 -5.548220e+00 169 18 30
-1.498639e-02 7.174584e-01 -5.427297e+00 91 1 7
1.632874e+00 -1.935170e+00 -1.215919e+01 115 90 66
2.364346e+00 1.272473e+00 -5.283222e+00 199 175 113
3.734860e-01 4.682221e-01 -5.400357e+00 72 3 2
7.467316e-01 8.028589e-02 -5.659267e+00 238 231 239
-7.118192e-01 5.409507e-01 -4.620982e+00 161 190 228
-8.741099e-01 -6.733802e-02 -4.929181e+00 242 188 200
6.844758e-01 2.700234e-01 -5.559690e+00 203 29 53
6.844758e-01 2.700234e-01 -5.559690e+00 203 29 53
2.253271e+00 -1.557291e+00 -5.686074e+00 215 38 66
4.835052e-01 3.090852e+00 -1.018320e+01 9 9 9
7.239063e-02 3.095144e+00 -1.043257e+01 8 8 8
1.959781e+00 2.174633e+00 -6.397663e+00 197 171 61
-6.473942e-02 2.215548e+00 -9.626811e+00 27 22 19
2.125579e+00 1.617442e+00 -5.963510e+00 218 182 97
8.215152e-01 1.497051e+00 -5.811542e+00 214 35 54
-2.031041e+00 2.050894e+00 -1.169775e+01 71 57 57
-2.722962e+00 2.143421e+00 -1.318661e+01 94 79 89
-2.633288e+00 1.849100e+00 -1.266077e+01 90 74 84
-2.747188e+00 1.813396e+00 -1.290481e+01 54 50 55
-9.542591e-01 8.157461e-01 -4.659316e+00 242 187 200
-9.765981e-01 7.767820e-01 -4.646905e+00 249 196 203
-9.917890e-01 7.228513e-01 -4.631597e+00 225 158 166
-8.773814e-01 7.173575e-01 -4.603194e+00 254 194 202
-6.990855e-01 7.198509e-01 -4.595605e+00 218 164 174
-7.012721e-01 6.686343e-01 -4.586088e+00 241 173 186
-6.200431e-01 6.627308e-01 -4.595512e+00 199 130 142
-9.822110e-01 6.121573e-01 -4.606330e+00 253 194 203
-9.001152e-01 6.014756e-01 -4.598236e+00 248 202 217
3.421936e-01 6.081232e-01 -5.377678e+00 155 106 126
2.340338e+00 6.446614e-01 -5.488869e+00 247 210 120
-9.243398e-01 4.704529e-01 -4.630309e+00 211 190 228
-5.625091e-01 4.879759e-01 -4.630967e+00 255 216 225
-6.176216e-01 3.767448e-01 -4.656687e+00 203 130 145
2.203986e+00 4.154482e-01 -5.485499e+00 242 192 94
-6.643302e-01 3.457949e-01 -4.644249e+00 218 145 162
-8.151036e-01 3.121728e-01 -4.667334e+00 248 196 208
-8.364036e-01 3.057568e-01 -4.679397e+00 229 165 184
-8.994926e-01 2.673602e-01 -4.718292e+00 253 203 211
-5.321680e-01 2.935147e-01 -4.597228e+00 248 202 215
-8.588983e-01 2.132408e-01 -4.705064e+00 253 193 205
-7.425469e-01 1.828725e-01 -4.615962e+00 255 203 216
-1.076756e+00 1.254433e-01 -4.917162e+00 255 201 209
5.507058e-01 8.820068e-02 -5.762566e+00 249 55 98
-8.727624e-01 1.418054e-01 -4.681591e+00 255 201 212
-4.250236e-01 1.564638e-01 -4.684322e+00 250 200 209
-8.270534e-01 1.022862e-01 -4.666465e+00 236 173 188
-4.265369e-01 9.016722e-02 -4.719944e+00 243 205 211
9.298454e-01 2.368902e-02 -5.598737e+00 203 153 169
-7.839065e-01 6.145629e-02 -4.678337e+00 251 208 218
-9.510988e-01 -5.392800e-02 -4.967446e+00 255 219 224
5.012257e-01 -1.821053e-01 -5.979934e+00 166 28 34
1.182414e+00 -8.029809e-02 -5.331844e+00 238 174 181
-8.669480e-01 -1.448357e-01 -5.011377e+00 118 141 191
-8.595293e-01 -1.893262e-01 -5.056006e+00 155 204 236
1.127003e+00 -2.952063e-01 -5.362796e+00 164 92 104
-8.210221e-01 -3.453299e-01 -5.238524e+00 237 189 200
1.024663e+00 -3.009406e-01 -5.350094e+00 213 141 155
2.143426e+00 -4.538411e-01 -6.034236e+00 206 172 45
1.873677e+00 -2.054592e+00 -1.160817e+01 74 49 49
2.055807e+00 -8.008404e-01 -6.206527e+00 196 170 45
2.055807e+00 -8.008404e-01 -6.206527e+00 196 170 45
2.094232e+00 -8.173170e-01 -6.150344e+00 200 172 44
2.243896e+00 -7.571774e-01 -5.771736e+00 239 211 71
1.970254e+00 -2.352072e+00 -1.133037e+01 118 101 112
2.268303e+00 -2.237121e+00 -1.056331e+01 141 131 142
1.629392e+00 -2.811027e+00 -1.247797e+01 74 61 72
2.180624e+00 -2.267160e+00 -1.062833e+01 97 81 93
1.206888e+00 -3.167988e+00 -1.339095e+01 74 63 73
1.324639e+00 -3.300636e+00 -1.328796e+01 71 60 76
1.947604e+00 -2.805768e+00 -1.147006e+01 90 83 99
1.947604e+00 -2.805768e+00 -1.147006e+01 90 83 99
1.979221e+00 -2.778588e+00 -1.133743e+01 132 121 135
1.245768e+00 -3.580425e+00 -1.346098e+01 104 94 108
1.245768e+00 -3.580425e+00 -1.346098e+01 104 94 108
2.272904e+00 -2.685655e+00 -1.054282e+01 80 68 82
2.418706e+00 -2.564757e+00 -1.008287e+01 128 115 128
2.236799e+00 -2.904196e+00 -1.064354e+01 76 68 83
1.793669e+00 -3.389177e+00 -1.196251e+01 78 64 77
2.203012e+00 -3.144184e+00 -1.076803e+01 116 111 129
2.143385e+00 -1.407171e+00 -5.951468e+00 231 180 51
2.500286e+00 -2.912167e+00 -9.923791e+00 140 131 151
1.722197e+00 -4.150530e+00 -1.224742e+01 106 103 119
2.787723e+00 -3.053563e+00 -9.162352e+00 105 97 120
-1.127641e+00 3.060889e+00 -1.082546e+01 80 33 9
-3.624362e+00 3.056393e+00 -1.226776e+01 124 114 131
6.735583e-01 2.821583e+00 -1.022214e+01 13 12 11
2.168759e+00 1.876897e+00 -5.732654e+00 216 173 52
2.168759e+00 1.876897e+00 -5.732654e+00 216 173 52
-6.707960e-01 2.114614e+00 -9.531434e+00 31 28 21
2.143439e+00 1.652994e+00 -5.874908e+00 223 187 110
2.316555e+00 1.549010e+00 -5.447795e+00 226 177 54
2.149962e+00 1.547884e+00 -5.900802e+00 217 170 66
2.163614e+00 1.553945e+00 -5.930373e+00 217 170 66
2.298149e+00 1.503533e+00 -5.516092e+00 223 180 77
2.020743e-02 8.997160e-01 -5.591697e+00 132 3 7
-1.090575e+00 6.568465e-01 -4.663340e+00 250 191 198
1.185683e+00 6.639789e-01 -5.594718e+00 216 40 62
1.234729e+00 6.664555e-01 -5.589963e+00 209 40 57
-6.438975e-01 5.724924e-01 -4.602862e+00 254 206 219
4.020057e-01 5.457384e-01 -5.376861e+00 249 53 103
-6.227918e-01 4.881856e-01 -4.616408e+00 255 208 220
-6.574258e-01 4.568926e-01 -4.588460e+00 252 200 208
2.100843e+00 4.409299e-01 -6.059646e+00 229 187 62
-7.104205e-01 3.228097e-01 -4.662842e+00 255 207 215
-8.360997e-01 2.839867e-01 -4.676224e+00 255 213 219
-8.733610e-01 2.706796e-01 -4.693609e+00 241 173 188
-9.153856e-01 2.457354e-01 -4.719809e+00 254 201 212
-1.064525e+00 2.013563e-01 -4.875944e+00 255 220 228
-7.686056e-01 2.102575e-01 -4.646033e+00 244 188 197
-1.174786e+00 9.694744e-02 -4.924354e+00 251 199 212
1.662315e+00 1.623190e-01 -5.285119e+00 198 148 84
-3.884654e-01 8.678007e-02 -4.735685e+00 252 212 219
4.417587e-01 -1.546940e-01 -5.966190e+00 223 38 59
4.734870e-01 -1.985139e-01 -5.924707e+00 211 37 60
1.207664e+00 -9.376746e-02 -5.337210e+00 156 83 90
6.413671e-01 -2.288982e-01 -5.589765e+00 171 20 27
2.417675e+00 -3.239565e-01 -5.330871e+00 252 217 234
2.115654e+00 -5.408324e-01 -6.117790e+00 246 218 83
2.035651e+00 -7.812847e-01 -6.300166e+00 179 192 148
2.026797e+00 -7.773691e-01 -6.281020e+00 179 192 148
1.865496e+00 -2.184647e+00 -1.168693e+01 82 63 67
2.220451e+00 -2.191284e+00 -1.065349e+01 152 150 170
2.160561e+00 -3.394237e+00 -1.092417e+01 85 72 86
2.872291e+00 -2.965782e+00 -8.853986e+00 83 71 88
-3.776730e-01 2.260676e+00 -9.631454e+00 33 24 19
-1.251686e+00 2.413793e+00 -1.103759e+01 56 34 31
-2.011561e-02 2.265904e+00 -9.677813e+00 42 29 23
2.176433e+00 1.824810e+00 -6.186340e+00 209 157 57
7.928004e-01 1.622477e+00 -5.723105e+00 171 22 33
2.170796e+00 1.707820e+00 -5.835542e+00 222 192 117
-1.683971e+00 2.057168e+00 -1.134238e+01 110 86 91
-2.465905e+00 2.060406e+00 -1.238376e+01 92 77 84
2.276704e+00 1.503878e+00 -5.540992e+00 229 203 130
2.252147e+00 1.478781e+00 -5.557652e+00 225 174 64
4.987773e-01 1.327304e+00 -5.790129e+00 182 29 36
-2.658598e+00 1.706227e+00 -1.260152e+01 88 72 81
1.471710e-01 1.170510e+00 -5.633470e+00 115 4 7
1.471710e-01 1.170510e+00 -5.633470e+00 115 4 7
7.031747e-02 8.878775e-01 -5.591625e+00 215 36 59
-8.104222e-01 7.647797e-01 -4.607495e+00 185 120 134
-1.211934e-01 7.389072e-01 -5.442098e+00 121 6 8
-9.282414e-01 6.458144e-01 -4.590841e+00 253 207 214
2.052102e+00 5.850587e-01 -6.201157e+00 208 171 108
-4.806974e-01 4.038037e-01 -4.646422e+00 149 91 108
2.005806e+00 2.667086e-01 -6.357474e+00 89 52 3
-9.363924e-01 2.673908e-01 -4.725012e+00 233 171 184
-1.090491e+00 1.437432e-01 -4.898706e+00 255 206 215
3.777510e-01 1.224016e-01 -5.645756e+00 236 58 108
-6.473063e-01 1.784033e-01 -4.589770e+00 254 216 224
8.834356e-01 -2.312132e-02 -5.628925e+00 199 158 169
-1.052486e+00 -1.989175e-02 -4.970445e+00 252 231 231
3.991766e-01 -3.008500e-01 -5.991621e+00 242 53 90
2.090849e+00 -5.245178e-01 -6.167394e+00 242 217 83
2.101538e+00 -5.835174e-01 -6.096458e+00 243 216 78
2.655183e+00 -2.854870e+00 -9.362982e+00 150 139 151
2.688694e+00 -2.889558e+00 -9.458651e+00 150 139 151
2.039020e+00 -3.674709e+00 -1.128579e+01 125 111 126
2.549864e+00 -3.282082e+00 -9.966339e+00 128 117 139
2.165426e-01 2.501053e+00 -9.778459e+00 23 19 18
5.865417e-01 1.584784e+00 -5.794988e+00 94 6 3
2.190703e+00 1.690931e+00 -5.756910e+00 221 192 94
8.372285e-01 1.561012e+00 -5.704366e+00 209 36 63
2.293239e+00 1.561170e+00 -5.485386e+00 231 171 56
1.961803e-01 1.319303e+00 -5.720915e+00 176 22 28
-9.467397e-01 6.970801e-01 -4.578534e+00 250 194 206
-5.797764e-01 6.774154e-01 -4.634648e+00 252 193 204
-1.055163e+00 6.045282e-01 -4.644225e+00 246 186 197
-9.840350e-01 5.493963e-01 -4.605923e+00 255 185 198
-8.694036e-01 5.469597e-01 -4.591611e+00 221 236 249
-5.759895e-01 5.591244e-01 -4.619680e+00 249 200 213
-9.540313e-01 5.243978e-01 -4.590522e+00 253 214 221
-1.123716e+00 4.708460e-01 -4.713161e+00 255 212 217
-6.773225e-01 4.733752e-01 -4.628836e+00 233 187 217
-9.616639e-01 4.319689e-01 -4.714818e+00 251 211 215
2.360460e+00 4.841534e-01 -5.426005e+00 247 190 62
-1.063576e+00 2.464334e-01 -4.801741e+00 253 191 202
7.967124e-01 1.312614e-01 -5.682146e+00 183 39 60
1.160423e+00 -2.644285e-01 -5.363980e+00 242 184 200
7.433303e-01 -2.185621e+00 -1.192049e+01 151 126 124
1.612260e+00 -3.821799e+00 -1.248931e+01 101 96 113
2.554006e+00 -1.481301e+00 -5.571519e+00 197 169 145
1.639202e-01 2.695213e+00 -1.001711e+01 37 28 26
5.963350e-01 1.665925e+00 -5.861584e+00 190 33 44
5.963350e-01 1.665925e+00 -5.861584e+00 190 33 44
-1.794815e+00 2.449854e+00 -1.244223e+01 76 59 65
1.985551e-01 1.157556e+00 -5.598436e+00 128 9 12
1.985551e-01 1.157556e+00 -5.598436e+00 128 9 12
-2.761428e+00 9.811930e-01 -1.247392e+01 117 95 105
8.864221e-01 8.141112e-01 -5.607788e+00 200 33 51
9.441503e-01 4.480303e-01 -5.512473e+00 182 33 66
-7.519525e-01 2.537827e-01 -4.636426e+00 226 160 169
-9.652386e-01 -3.657132e-02 -4.929380e+00 252 217 221
-4.083685e-01 -1.176376e-01 -4.995914e+00 250 209 218
7.179936e-01 -4.284052e+00 -1.377214e+01 14 14 14
-1.359668e-02 2.404351e+00 -9.815096e+00 13 12 11
7.324221e-01 1.517158e+00 -5.774242e+00 223 41 66
-2.639167e+00 1.984497e+00 -1.285908e+01 95 79 89
2.600462e-01 7.754415e-01 -5.525205e+00 231 42 70
1.289011e+00 1.223211e-01 -5.467480e+00 133 25 23
2.276754e+00 8.097507e-02 -5.681011e+00 239 217 139
2.217818e+00 -1.063115e+00 -5.848432e+00 231 223 104
-4.311644e+00 -2.323238e-01 -1.696494e+01 141 133 148
-1.067620e+00 3.683307e-01 -4.792979e+00 250 208 217
1.300300e+00 3.831630e-01 -5.823511e+00 204 40 55
-3.163057e+00 3.321729e+00 -1.754882e+01 51 42 44
-2.350089e+00 1.626718e+00 -1.202954e+01 123 105 114
2.618156e-01 6.933580e-01 -5.439678e+00 71 3 8
-3.932162e-01 -2.539685e-01 -5.260750e+00 159 133 138
1.542766e+00 3.649045e-01 -5.918344e+00 205 40 50
4.814427e-01 1.032654e+00 -5.575688e+00 142 28 53
-1.074076e+00 7.502346e-01 -4.659242e+00 223 169 184
-7.140880e-01 6.961841e-01 -4.588396e+00 224 164 179
-7.140880e-01 6.961841e-01 -4.588396e+00 224 164 179
6.357992e-02 8.221402e-01 -5.557384e+00 175 25 40
-5.614553e-01 6.397799e-01 -4.624951e+00 236 170 182
2.384542e+00 7.065622e-01 -5.366520e+00 218 186 116
1.994682e+00 -3.271077e+00 -1.137876e+01 55 45 62
2.766905e-01 8.963703e-01 -5.532480e+00 170 20 31
1.915076e+00 -3.875407e+00 -1.166205e+01 71 67 87
4.797878e-01 2.989178e+00 -1.033701e+01 13 13 11
-6.969971e-02 2.217879e+00 -9.662216e+00 27 22 19
-5.844455e-01 2.117318e+00 -9.665317e+00 35 31 26
-1.402880e+00 2.220937e+00 -1.112310e+01 77 51 52
7.170228e-01 1.564359e+00 -5.771847e+00 202 33 55
-2.179082e+00 2.282364e+00 -1.258830e+01 79 64 69
-2.219181e+00 2.175764e+00 -1.251412e+01 79 65 72
-1.269424e-01 1.902605e+00 -9.579064e+00 27 25 20
-1.965505e+00 1.783511e+00 -1.142125e+01 98 77 87
1.209164e+00 1.248561e+00 -5.282675e+00 162 116 127
2.299653e+00 1.323949e+00 -5.501609e+00 228 179 57
2.299653e+00 1.323949e+00 -5.501609e+00 228 179 57
4.357966e-01 1.019805e+00 -5.570810e+00 221 200 223
3.947073e-01 1.006086e+00 -5.565646e+00 238 211 231
5.658163e-01 1.018187e+00 -5.581649e+00 162 28 49
4.426803e-01 8.797458e-01 -5.554520e+00 229 156 176
5.283290e-01 8.213993e-01 -5.548565e+00 223 192 208
5.283290e-01 8.213993e-01 -5.548565e+00 223 192 208
-9.805863e-01 6.436668e-01 -4.590463e+00 219 151 163
-6.672053e-01 6.378392e-01 -4.583808e+00 246 186 195
-9.367376e-01 4.489669e-01 -4.628143e+00 246 201 220
-5.736049e-01 3.231345e-01 -4.599123e+00 248 195 208
-8.260177e-01 1.027858e-01 -4.664599e+00 236 173 188
7.654532e-01 -1.821993e-01 -5.467545e+00 200 36 61
7.654532e-01 -1.821993e-01 -5.467545e+00 200 36 61
7.524534e-01 -2.110828e-01 -5.468820e+00 223 44 69
5.627600e-01 -2.699889e-01 -5.654186e+00 194 32 47
2.518017e+00 -3.297006e+00 -9.967331e+00 123 119 149
1.557045e+00 2.295288e+00 -7.353103e+00 114 95 82
1.557045e+00 2.295288e+00 -7.353103e+00 114 95 82
1.781136e+00 2.071513e+00 -6.757174e+00 102 69 19
1.794632e+00 1.941003e+00 -6.866638e+00 167 125 51
7.274950e-01 1.587529e+00 -5.777906e+00 168 15 27
-2.366549e+00 2.201445e+00 -1.278122e+01 84 72 76
2.284813e+00 1.544504e+00 -5.534311e+00 229 198 126
-5.570669e-01 1.821309e+00 -9.783969e+00 38 32 32
-5.926731e-01 1.654516e+00 -9.905312e+00 15 12 16
4.531963e-01 8.260511e-01 -5.559512e+00 222 198 216
2.328716e+00 6.718663e-01 -5.476584e+00 243 190 79
2.093293e+00 5.524616e-01 -6.152372e+00 217 185 116
2.172195e+00 4.116400e-01 -6.041285e+00 242 203 65
-1.071383e+00 1.048471e-01 -4.905739e+00 251 183 194
1.874340e+00 -3.867748e+00 -1.177155e+01 69 56 66
1.586298e+00 -4.509728e+00 -1.273659e+01 92 88 103
1.269912e+00 2.391613e+00 -7.873731e+00 19 15 16
2.225714e+00 1.760716e+00 -5.687032e+00 223 195 54
3.465577e-01 1.439423e+00 -5.769321e+00 171 22 28
2.167587e+00 1.527669e+00 -5.862845e+00 219 169 54
2.167587e+00 1.527669e+00 -5.862845e+00 219 169 54
5.187015e-01 1.375522e+00 -5.807011e+00 166 15 23
-3.105320e-01 1.654820e+00 -9.377350e+00 6 6 4
-6.260620e-01 1.691661e+00 -9.894473e+00 88 78 87
1.460469e+00 1.206378e+00 -5.287340e+00 185 130 132
3.303389e-01 9.652407e-01 -5.541114e+00 228 43 77
8.217567e-01 6.712038e-01 -5.567092e+00 236 46 81
2.451200e-02 5.801024e-01 -5.388924e+00 250 236 245
2.234466e+00 4.223814e-01 -5.803098e+00 244 188 79
1.643536e+00 -4.404389e+00 -1.256000e+01 65 58 69
-4.882485e-01 2.019664e+00 -9.695694e+00 21 21 21
-4.882485e-01 2.019664e+00 -9.695694e+00 21 21 21
-3.741729e-01 1.910761e+00 -9.723604e+00 49 44 44
6.878185e-01 1.351321e+00 -5.927273e+00 68 1 0
4.884406e-01 1.139279e+00 -5.608775e+00 175 30 40
-8.055405e-02 9.049666e-01 -5.626263e+00 94 3 3
8.462513e-03 8.350184e-01 -5.561520e+00 191 31 45
1.383006e-01 5.467151e-01 -5.381484e+00 105 39 62
-5.121058e-01 3.892866e-01 -4.627170e+00 232 183 194
2.397202e+00 -5.728294e-01 -5.362392e+00 255 63 99
2.397202e+00 -5.728294e-01 -5.362392e+00 255 63 99
-6.949512e-01 2.158510e+00 -9.631611e+00 32 27 24
6.001180e-01 1.134907e+00 -5.666322e+00 91 1 0
-1.526789e-02 7.274167e-01 -5.468824e+00 107 3 7
1.852100e+00 -3.880140e+00 -1.182722e+01 72 59 70
2.269091e+00 8.240302e-02 -5.667173e+00 239 217 139
7.458452e-01 1.099214e+00 -5.683963e+00 178 24 37
1.577032e+00 2.753864e+00 -7.238587e+00 141 136 152
1.823464e-01 8.205610e-01 -5.487251e+00 245 48 86
1.374263e-01 8.552265e-01 -5.532994e+00 239 45 80
2.187586e+00 1.860257e+00 -5.749344e+00 178 145 47
9.660529e-01 1.530573e+00 -5.692717e+00 187 118 131
1.239720e+00 1.373251e+00 -5.392828e+00 109 71 84
-2.420716e+00 2.165057e+00 -1.271395e+01 35 28 35
-9.547216e-01 8.344903e-01 -4.653604e+00 166 115 134
1.552160e-01 1.044621e+00 -5.562615e+00 134 8 14
-1.013500e+00 7.717764e-01 -4.644822e+00 182 125 142
5.543954e-01 9.374920e-01 -5.567347e+00 199 126 145
-1.829005e+00 4.846050e-01 -1.148272e+01 83 66 71
-2.245073e+00 3.633932e-01 -1.209909e+01 71 59 63
-6.219709e-01 3.556396e-01 -4.640821e+00 195 136 151
-5.696887e-01 2.643960e-01 -4.592662e+00 225 168 177
2.401749e+00 3.721321e-01 -5.345928e+00 208 155 67
2.461475e+00 1.868526e-01 -5.146457e+00 241 160 171
2.461475e+00 1.868526e-01 -5.146457e+00 241 160 171
2.459052e+00 1.445353e-01 -5.162537e+00 228 169 187
1.327308e+00 3.285202e-02 -5.298491e+00 197 135 143
2.432067e+00 -2.979860e-02 -5.245407e+00 193 81 109
2.430000e+00 -2.949945e-02 -5.242941e+00 193 81 109
6.683620e-01 -1.956306e-01 -5.565445e+00 177 27 37
-2.021848e+00 -1.173618e+00 -1.204537e+01 43 38 48
2.457012e+00 -2.429637e-01 -5.171549e+00 215 46 50
2.416859e+00 -2.674735e-01 -5.300303e+00 230 188 202
1.555668e+00 -3.070741e+00 -1.267162e+01 30 25 32
2.685971e+00 -2.815060e+00 -9.379472e+00 41 31 41
2.312252e+00 -3.541629e+00 -1.054672e+01 21 19 22
7.801420e-01 1.671582e+00 -5.771468e+00 132 12 18
5.506753e-01 9.669340e-01 -5.572248e+00 134 8 23
3.579474e-01 8.769858e-01 -5.540000e+00 150 23 40
-1.004575e+00 6.230312e-01 -4.607002e+00 177 111 130
2.391748e+00 1.071481e+00 -5.240882e+00 201 168 55
-1.810403e+00 5.333846e-01 -1.144034e+01 38 29 37
-1.810403e+00 5.333846e-01 -1.144034e+01 38 29 37
-1.984276e+00 4.859809e-01 -1.171268e+01 87 67 76
-1.902803e+00 4.772782e-01 -1.158449e+01 41 29 37
2.419261e+00 6.353291e-01 -5.186180e+00 209 178 113
2.352267e+00 6.164796e-01 -5.504257e+00 204 147 65
-2.747609e+00 1.833338e-02 -1.297566e+01 68 56 58
-7.525004e-01 1.373121e-01 -4.629897e+00 228 166 179
2.464691e+00 2.604032e-01 -5.154225e+00 200 66 98
2.464691e+00 2.604032e-01 -5.154225e+00 200 66 98
2.451662e+00 1.690151e-01 -5.175718e+00 215 40 62
2.416208e+00 1.414742e-02 -5.285156e+00 223 170 176
2.416208e+00 1.414742e-02 -5.285156e+00 223 170 176
2.406003e+00 -5.255851e-02 -5.288767e+00 211 46 62
6.502247e-01 -3.545970e-01 -5.526769e+00 192 33 43
2.395018e+00 -3.355108e-01 -5.371298e+00 215 182 184
2.100133e+00 -7.365062e-01 -6.117333e+00 159 130 37
2.100133e+00 -7.365062e-01 -6.117333e+00 159 130 37
2.457079e+00 -3.414258e+00 -1.011076e+01 59 57 71
2.110544e+00 1.781777e+00 -5.996056e+00 165 118 31
2.160589e+00 1.701025e+00 -5.913616e+00 175 125 48
1.816321e-01 1.075517e+00 -5.575062e+00 152 16 23
4.061653e-01 1.085463e+00 -5.570210e+00 197 170 184
4.061653e-01 1.085463e+00 -5.570210e+00 197 170 184
-2.952839e+00 1.108438e+00 -1.270778e+01 59 46 53
2.442100e+00 9.021696e-01 -5.360352e+00 204 172 112
-6.937258e-01 4.480196e-01 -4.632499e+00 170 139 172
-2.170752e+00 3.720818e-01 -1.199604e+01 30 22 27
-2.170752e+00 3.720818e-01 -1.199604e+01 30 22 27
-2.972262e+00 -5.904909e-01 -1.471717e+01 105 101 122
2.416174e+00 -9.282114e-02 -5.298572e+00 222 187 200
2.126171e+00 -4.964133e-01 -6.089597e+00 213 182 65
2.133540e+00 -4.887076e-01 -6.026469e+00 147 117 21
2.135971e+00 -4.891140e-01 -6.029433e+00 147 117 21
2.084329e+00 -6.084470e-01 -6.161076e+00 160 132 34
2.108168e+00 -6.916717e-01 -6.108872e+00 161 135 41
-9.137007e-01 6.804105e-01 -4.582834e+00 158 96 116
-2.112361e+00 4.713081e-01 -1.189702e+01 84 63 72
2.452910e+00 -8.076447e-02 -5.207898e+00 216 38 58
2.404271e+00 -4.962879e-01 -5.342046e+00 217 35 60
2.387485e+00 -3.550019e+00 -1.041587e+01 27 19 23
2.347586e+00 5.996966e-01 -5.477223e+00 210 147 50
2.347586e+00 5.996966e-01 -5.477223e+00 210 147 50
2.127216e+00 4.773382e-01 -6.074680e+00 192 128 47
2.447485e+00 1.365434e-01 -5.193012e+00 218 188 207
2.398807e+00 -3.649283e-02 -5.309257e+00 216 39 52
2.420082e+00 -1.689595e-01 -5.290191e+00 218 180 191
2.420082e+00 -1.689595e-01 -5.290191e+00 218 180 191
2.441727e+00 -2.221693e-01 -5.255324e+00 216 38 57
2.431065e+00 -2.980925e-01 -5.278289e+00 213 37 55
2.388500e+00 -3.241243e-01 -5.325787e+00 207 168 185
2.388500e+00 -3.241243e-01 -5.325787e+00 207 168 185
2.301738e+00 1.491136e+00 -5.443523e+00 187 165 107
2.318926e+00 1.491241e+00 -5.455881e+00 187 165 107
2.335655e+00 1.328673e+00 -5.374987e+00 192 165 110
2.477062e+00 -1.942771e-01 -5.471388e+00 217 37 42
2.424141e+00 -2.499804e-01 -5.336655e+00 228 157 175
2.410506e+00 -2.496103e-01 -5.320227e+00 228 157 175
-1.264255e+00 2.880124e+00 -1.110726e+01 66 29 12
2.244197e+00 -4.129676e-01 -5.224322e+00 218 61 91
2.340683e+00 3.666316e-01 -5.496278e+00 217 187 54
2.030845e+00 -8.356590e-01 -6.248790e+00 214 192 86
-6.960068e-01 2.132357e+00 -9.581928e+00 21 20 18
-1.544828e+00 3.203173e+00 -1.080730e+01 78 32 13
-5.853365e-01 2.069899e+00 -9.632529e+00 16 14 16
4.764809e-01 -3.797621e-01 -5.878454e+00 222 45 73
2.235489e+00 1.644561e+00 -5.544609e+00 226 197 60
-1.111788e+00 3.003607e+00 -1.083801e+01 54 33 14
-1.111788e+00 3.003607e+00 -1.083801e+01 54 33 14
-4.872453e-01 2.071211e+00 -9.603074e+00 26 22 21
2.459402e+00 1.448082e-01 -5.162987e+00 228 169 187
2.445040e+00 1.031647e-01 -5.202722e+00 197 85 114
2.424717e+00 3.197548e-02 -5.260209e+00 205 73 89
2.428632e+00 -8.006099e-02 -5.263462e+00 199 78 111
2.318942e+00 -2.348134e-01 -5.582903e+00 174 144 24
2.458960e+00 -2.036342e-01 -5.188927e+00 211 63 30
2.175811e+00 -7.154298e-01 -5.966812e+00 201 171 49
2.070183e+00 -8.620429e-01 -6.216611e+00 207 177 63
2.252477e+00 -8.033193e-01 -5.768256e+00 176 148 33
2.251783e+00 -8.037527e-01 -5.768246e+00 176 148 33
-1.414994e+00 2.988721e+00 -1.097980e+01 67 30 10
-2.314801e+00 2.933336e+00 -1.149764e+01 80 73 84
2.398868e+00 9.393102e-01 -5.340519e+00 199 145 59
2.404820e+00 8.895156e-01 -5.369903e+00 201 149 62
2.404820e+00 8.895156e-01 -5.369903e+00 201 149 62
2.145508e+00 -2.223244e-01 -6.039025e+00 164 133 27
2.145508e+00 -2.223244e-01 -6.039025e+00 164 133 27
2.138148e+00 -5.218008e-01 -6.056937e+00 154 124 26
2.102439e+00 -5.591238e-01 -6.147114e+00 165 138 36
2.099529e+00 -5.600068e-01 -6.143444e+00 165 138 36
2.470026e+00 1.175874e-01 -5.156370e+00 215 42 79
2.130129e+00 -4.556511e-01 -6.073185e+00 215 184 60
2.092388e+00 -6.105012e-01 -6.173083e+00 160 132 34
2.275152e+00 -7.791950e-01 -5.744661e+00 208 182 47
1.972862e+00 -1.158397e+00 -6.343778e+00 200 177 59
1.827553e+00 -9.804158e-01 -6.698018e+00 194 166 54
2.099033e+00 -9.219600e-01 -6.156752e+00 206 178 52
2.410075e+00 6.322849e-02 -5.278412e+00 215 36 53
2.440182e+00 5.463508e-02 -5.223360e+00 225 167 180
2.440182e+00 5.463508e-02 -5.223360e+00 225 167 180
2.454999e+00 2.064663e-01 -5.164143e+00 249 68 108
-5.070635e-01 1.943967e+00 -9.712192e+00 38 37 37
-7.937570e-01 2.157033e+00 -9.607901e+00 33 32 29
2.511392e+00 3.148910e-01 -5.006225e+00 254 69 89
2.541537e+00 4.105733e-01 -4.951668e+00 225 110 46
-6.977428e-01 9.582389e-01 -9.929276e+00 67 52 61
-6.244468e-01 1.941749e+00 -9.658182e+00 16 14 15
2.468429e+00 -1.079781e-01 -5.159729e+00 225 122 47
2.454582e+00 4.785947e-02 -5.152084e+00 255 63 117
2.465014e+00 1.330917e-01 -5.123287e+00 255 64 109
2.497960e+00 2.134273e-01 -5.046589e+00 248 160 64
2.010034e+00 -1.131005e+00 -6.260330e+00 242 214 74
2.518886e+00 3.653344e-01 -4.995264e+00 250 148 75
2.544310e+00 5.293950e-01 -4.945085e+00 255 180 89
2.397200e+00 1.320185e+00 -5.205114e+00 238 186 71
2.452749e+00 8.464331e-03 -5.256614e+00 234 166 193
2.423097e+00 2.129510e-01 -5.212467e+00 255 60 94
2.412704e+00 9.593056e-01 -5.232891e+00 237 218 149
2.412704e+00 9.593056e-01 -5.232891e+00 237 218 149
-4.331032e+00 3.581238e+00 -1.143855e+01 132 77 67
-4.353459e+00 3.547126e+00 -1.146045e+01 126 52 29
-6.837465e-01 -1.659361e-01 -4.227265e+00 141 184 220
-4.643486e+00 3.561822e+00 -1.144224e+01 127 50 20
2.173561e+00 -9.255719e-02 -5.969950e+00 218 185 53
-1.653815e+00 3.128851e+00 -1.081478e+01 90 46 19
2.141149e+00 -1.410261e+00 -5.947799e+00 231 180 51
-3.357952e+00 3.452198e+00 -1.157647e+01 172 75 38
-1.801914e+00 3.350882e+00 -1.057780e+01 35 20 25
-1.037807e+00 2.735960e-02 -4.537464e+00 253 231 233
1.226542e-01 3.085779e+00 -1.009993e+01 4 4 4
2.389421e+00 -1.211781e-01 -5.332540e+00 219 35 59
2.348825e+00 -6.098340e-01 -5.469640e+00 217 36 52
-1.539553e+00 1.205257e+01 -1.007662e+01 32 20 21
1.823374e+00 9.071610e+00 -8.865366e+00 19 20 35
-5.712753e-01 1.132889e+01 -1.019186e+01 46 19 9
-5.539458e-01 1.098244e+01 -1.029089e+01 79 67 81
3.060868e+00 5.410490e+00 -7.441095e+00 112 99 116
-6.777782e-01 -1.886575e-01 -5.041881e+00 164 184 225
3.746221e-01 3.189555e-01 -5.630069e+00 234 43 74
-2.618560e+00 5.332111e+00 -1.014617e+01 12 11 11
-2.531019e+00 5.248593e+00 -1.036790e+01 7 7 7
-2.148044e+00 5.216929e+00 -1.048679e+01 10 13 16
-2.207813e+00 5.202718e+00 -1.061115e+01 15 16 18
-2.519698e+00 5.193287e+00 -1.058841e+01 7 7 6
-6.612861e-01 3.467123e+00 -9.501942e+00 45 52 77
-6.636699e-01 3.462778e+00 -9.497959e+00 45 52 77
-2.050489e+00 5.100389e+00 -1.089708e+01 7 7 7
-2.349620e+00 5.065852e+00 -1.106377e+01 7 7 7
-2.273358e+00 5.047363e+00 -1.109332e+01 5 5 5
-2.839592e+00 5.035383e+00 -1.110413e+01 8 8 10
-1.406068e-01 3.230977e+00 -9.928750e+00 41 38 21
-1.406068e-01 3.230977e+00 -9.928750e+00 41 38 21
-6.166863e-02 3.205444e+00 -9.966738e+00 33 31 18
1.861203e+00 -9.499998e-01 -6.639502e+00 56 25 0
1.818020e+00 -1.130220e+00 -6.696821e+00 61 40 0
-1.649604e+00 3.004456e+00 -1.113461e+01 97 35 12
-1.611280e+00 2.825554e+00 -1.127584e+01 18 13 10
-2.254458e+00 2.915046e+00 -1.145574e+01 21 20 20
1.634406e+00 9.539783e+00 -8.186956e+00 3 12 19
2.668486e+00 9.158524e+00 -8.127348e+00 47 36 44
1.970332e+00 9.320527e+00 -8.249907e+00 3 36 71
2.720714e+00 8.220740e+00 -7.959282e+00 47 36 36
5.949026e-01 1.076743e+01 -9.302578e+00 68 25 35
2.043633e-01 1.163193e+01 -9.730879e+00 24 14 13
2.709678e+00 7.883973e+00 -8.024139e+00 94 82 96
2.849496e+00 7.336373e+00 -7.787933e+00 105 98 117
-8.212427e-01 1.247612e+01 -1.025737e+01 88 34 36
2.739784e+00 7.794527e+00 -8.044432e+00 54 44 49
3.042942e+00 6.332458e+00 -7.320718e+00 119 110 130
1.806388e+00 9.087895e+00 -8.755677e+00 65 36 54
3.252129e+00 5.359840e+00 -6.877351e+00 114 102 120
2.374148e+00 1.634088e+00 -5.069749e+00 129 103 40
-4.055473e-01 1.136871e+01 -1.020510e+01 8 7 6
2.968721e+00 5.789949e+00 -7.588548e+00 52 39 40
-2.123076e-01 1.090821e+01 -1.045973e+01 37 53 76
3.441658e-03 9.867267e+00 -1.096321e+01 24 18 23
2.403052e+00 -3.320314e-01 -5.313937e+00 243 201 214
-5.023755e-02 2.699892e-01 -5.520953e+00 199 165 176
-4.873674e-02 2.680492e-01 -5.518124e+00 199 165 176
2.397740e+00 -3.868199e-01 -5.332134e+00 241 188 201
-7.870131e-01 -2.944412e-01 -5.159986e+00 241 237 249
-8.505121e-01 -3.104401e-01 -5.173245e+00 224 154 168
-1.700352e-03 2.194654e-01 -5.837557e+00 193 31 45
-1.864318e+00 5.235139e+00 -1.064733e+01 7 12 16
-1.764298e+00 5.211284e+00 -1.067343e+01 1 46 84
-1.764298e+00 5.211284e+00 -1.067343e+01 1 46 84
-2.584456e+00 5.190630e+00 -1.056673e+01 7 7 9
-6.578746e-01 3.448169e+00 -9.565136e+00 17 26 46
-2.691344e+00 5.094800e+00 -1.086102e+01 7 7 7
-5.920713e-01 3.424089e+00 -9.624163e+00 18 24 47
-5.482417e-01 3.358262e+00 -9.636205e+00 16 22 36
1.608761e+00 -3.672698e-01 -7.272170e+00 198 174 58
1.166534e+00 4.184635e-01 -8.191719e+00 41 35 37
1.582343e+00 -3.494041e-01 -7.361603e+00 177 140 54
8.192271e-01 9.230693e-01 -8.815477e+00 57 11 10
1.019941e+00 6.037875e-01 -8.509257e+00 36 30 37
1.017371e+00 5.081549e-01 -8.539830e+00 36 28 39
1.406584e+00 -3.295079e-01 -7.724114e+00 32 15 0
9.473090e-01 4.576358e-01 -8.671984e+00 54 50 67
9.473090e-01 4.576358e-01 -8.671984e+00 54 50 67
9.265832e-01 4.965501e-01 -8.734258e+00 120 112 124
-2.236226e+00 3.030383e+00 -1.122348e+01 77 72 82
-2.236226e+00 3.030383e+00 -1.122348e+01 77 72 82
9.122328e-01 3.435619e-01 -8.770779e+00 138 133 150
9.122328e-01 3.435619e-01 -8.770779e+00 138 133 150
9.124376e-01 3.153335e-01 -8.782649e+00 140 136 153
8.602317e-01 2.371734e-01 -8.930062e+00 159 145 159
1.803041e+00 9.590050e+00 -8.195807e+00 13 18 31
1.708034e+00 9.445102e+00 -8.215102e+00 9 38 77
-1.079718e-01 1.260231e+01 -9.938192e+00 87 57 59
-9.951085e-01 1.166354e+01 -1.007973e+01 24 15 14
2.376843e+00 1.664592e+00 -5.037106e+00 211 182 61
2.382537e+00 1.571079e+00 -5.061417e+00 215 184 64
2.361460e+00 4.796764e-01 -5.407090e+00 226 170 69
-5.768414e-01 -1.531206e-01 -4.954539e+00 131 83 103
9.328551e-01 3.485580e-01 -5.597227e+00 188 28 40
-1.804547e+00 5.225472e+00 -1.059429e+01 2 42 67
-2.322222e+00 5.215785e+00 -1.057015e+01 10 19 25
-2.322918e+00 5.200922e+00 -1.055677e+01 10 19 25
-1.714357e+00 5.168301e+00 -1.075242e+01 3 41 72
-7.383881e-01 3.359433e+00 -9.849194e+00 10 9 10
2.066650e+00 -7.573745e-01 -6.206741e+00 162 135 20
1.209057e+00 5.555696e-01 -8.099907e+00 9 10 9
1.721196e+00 -4.909329e-01 -7.018109e+00 199 175 52
-2.291789e+00 3.348561e+00 -1.078667e+01 132 53 38
1.677866e+00 -5.939079e-01 -7.103020e+00 150 120 110
1.597877e+00 -4.369553e-01 -7.286139e+00 196 174 54
8.872552e-01 8.208230e-01 -8.722136e+00 81 71 73
8.862331e-01 8.206716e-01 -8.722218e+00 81 71 73
-1.607284e+00 3.023284e+00 -1.084395e+01 91 35 15
-1.516248e+00 3.004534e+00 -1.095883e+01 97 52 22
1.809776e+00 -1.092446e+00 -6.708246e+00 207 184 54
9.322242e-01 5.665082e-01 -8.694196e+00 106 98 118
8.652438e-01 5.411461e-01 -8.832960e+00 128 122 134
8.356932e-01 5.600076e-01 -8.878872e+00 130 122 140
8.356932e-01 5.600076e-01 -8.878872e+00 130 122 140
1.147350e+00 -1.041389e-01 -8.336750e+00 18 17 21
-2.622180e+00 2.976062e+00 -1.154141e+01 76 70 81
-2.622180e+00 2.976062e+00 -1.154141e+01 76 70 81
8.602671e-01 2.852943e-01 -8.914581e+00 148 141 159
2.879862e+00 6.482028e+00 -7.729797e+00 99 90 112
2.346952e+00 1.661415e+00 -5.170913e+00 148 126 73
2.252415e+00 1.507831e+00 -5.525843e+00 210 186 119
2.276806e+00 1.459535e+00 -5.503632e+00 209 160 61
2.281889e+00 1.465678e+00 -5.508382e+00 209 160 61
2.479216e+00 2.029754e-01 -5.110439e+00 234 52 77
2.442349e+00 1.315352e-01 -5.189893e+00 235 202 218
2.297822e+00 3.433615e-01 -5.571874e+00 220 197 130
-7.274154e-01 -1.713539e-01 -5.001230e+00 171 224 254
-7.914865e-01 -3.058293e-01 -5.185767e+00 225 158 170
2.162315e+00 -4.799653e-02 -5.965633e+00 188 155 47
2.162315e+00 -4.799653e-02 -5.965633e+00 188 155 47
1.148285e-01 1.137197e-01 -5.841102e+00 222 41 70
-2.180508e+00 5.233933e+00 -1.054593e+01 8 9 10
-1.966297e+00 5.167045e+00 -1.076401e+01 5 4 4
-2.318012e+00 5.091064e+00 -1.081691e+01 5 5 5
-2.319325e+00 5.123140e+00 -1.084924e+01 5 5 5
-2.159759e+00 5.127154e+00 -1.087680e+01 4 4 4
1.643043e+00 -3.435956e-01 -6.354947e+00 200 139 147
-1.486729e-01 2.347704e+00 -9.658763e+00 9 9 9
1.875288e+00 -7.986737e-01 -6.586822e+00 67 38 8
-1.394873e+00 3.189379e+00 -1.049806e+01 89 48 12
-1.668089e+00 3.132476e+00 -1.077743e+01 104 51 18
9.817768e-01 5.618303e-01 -8.582224e+00 87 79 91
1.181492e+00 1.863010e-01 -8.235953e+00 9 11 8
9.742317e-01 3.618410e-01 -8.653801e+00 123 119 133
9.081557e-01 4.113976e-01 -8.769641e+00 131 124 146
-2.786271e+00 2.848711e+00 -1.172285e+01 10 9 10
-2.521701e+00 3.115712e+00 -1.288190e+01 9 9 9
-1.034677e+00 1.161422e+00 -1.026632e+01 26 24 27
1.178774e+00 -7.034412e-01 -8.235433e+00 177 155 52
2.434208e+00 -1.608818e-01 -5.224597e+00 242 47 75
-7.320425e-01 -2.986774e-01 -5.164156e+00 232 169 184
-1.963470e+00 5.199723e+00 -1.065590e+01 0 55 100
3.216415e-01 -2.540276e-01 -6.002270e+00 139 12 14
-2.533977e+00 4.603452e+00 -1.087097e+01 4 4 6
8.225220e-01 8.046858e-01 -8.847561e+00 99 89 98
-1.698925e+00 3.021158e+00 -1.099080e+01 104 58 16
1.513044e+00 -4.134492e-01 -7.486081e+00 192 169 54
9.733918e-01 4.707630e-01 -8.578450e+00 101 95 112
-2.411851e+00 2.893917e+00 -1.150870e+01 17 17 18
2.369139e+00 9.836184e+00 -8.481266e+00 14 18 25
-6.185636e-02 1.077194e+01 -1.056442e+01 99 95 115
2.493072e+00 4.775721e-01 -5.086106e+00 202 94 123
2.430157e+00 3.205377e-01 -5.180050e+00 238 52 76
-1.823651e+00 5.149009e+00 -1.078799e+01 5 4 5
-1.810111e+00 3.287696e+00 -1.055860e+01 19 17 20
1.564323e+00 -5.506078e-01 -7.401712e+00 197 172 49
-1.662382e+00 2.841973e+00 -1.124113e+01 13 13 16
8.066153e-02 1.226500e+01 -9.838158e+00 11 10 13
2.329551e+00 1.058230e+00 -5.353827e+00 216 189 121
-2.421179e+00 3.086219e+00 -1.121692e+01 17 19 18
-2.591239e+00 3.040427e+00 -1.139688e+01 18 18 18
-2.758131e+00 2.985113e+00 -1.155584e+01 20 18 21
3.231440e-01 1.158542e+01 -9.598379e+00 75 45 48
-8.235907e-01 -2.745262e-01 -5.140993e+00 183 214 247
1.849539e+00 -8.242552e-01 -6.690812e+00 214 186 51
1.195845e+00 1.837592e-01 -8.174340e+00 14 12 12
-7.837518e-01 -2.301069e-01 -5.064396e+00 18 22 29
3.828979e-01 2.497606e-02 -5.874491e+00 75 0 1
1.651686e+00 -3.814799e-01 -7.165262e+00 204 175 50
-1.823867e+00 3.245431e+00 -1.067424e+01 18 18 17
2.018594e+00 -5.906178e-01 -6.367316e+00 225 194 66
-1.594188e+00 2.968834e+00 -1.096423e+01 92 37 13
2.434251e+00 5.615071e-01 -5.210302e+00 204 160 75
-1.732057e+00 2.940798e+00 -1.121361e+01 23 11 6
2.447801e+00 1.362034e-01 -5.194338e+00 218 188 207
-9.981191e-01 1.084164e+01 -1.020816e+01 45 43 57
-2.496837e-01 1.093621e+01 -1.037302e+01 72 56 70
-6.345351e-01 1.045679e+01 -1.045488e+01 84 77 97
1.373899e+00 1.227663e+00 -5.644677e+00 179 146 55
-7.330426e-01 7.932935e+00 -1.083241e+01 123 105 122
-7.201297e-01 7.897341e+00 -1.088239e+01 50 60 89
-2.315666e+00 7.277043e+00 -1.046344e+01 20 19 28
-2.315666e+00 7.277043e+00 -1.046344e+01 20 19 28
-1.944059e+00 5.480164e+00 -9.810971e+00 2 31 46
-1.679345e+00 5.481996e+00 -9.893983e+00 9 25 35
-1.250718e+00 5.437808e+00 -1.011657e+01 51 53 84
-1.836285e+00 5.432499e+00 -1.002922e+01 17 85 112
-3.648892e-01 5.428444e+00 -1.035112e+01 15 14 28
-2.493603e+00 5.365522e+00 -9.948898e+00 6 6 6
-1.943216e+00 5.384594e+00 -1.007021e+01 7 53 66
-2.654454e+00 5.400246e+00 -9.985768e+00 7 7 7
-1.616494e+00 5.390049e+00 -1.015522e+01 33 24 37
-2.465107e+00 5.311966e+00 -1.013844e+01 11 11 13
-2.580195e+00 5.273788e+00 -1.027077e+01 10 10 12
-2.580195e+00 5.273788e+00 -1.027077e+01 10 10 12
-2.738673e+00 5.273560e+00 -1.027218e+01 8 8 10
-2.766446e+00 5.271423e+00 -1.034390e+01 8 8 8
6.276562e-01 -4.708625e-01 -5.554477e+00 209 40 59
-2.210136e+00 5.198823e+00 -1.046273e+01 12 12 12
-2.548779e+00 5.220406e+00 -1.042853e+01 9 9 9
-2.633088e+00 5.212262e+00 -1.043830e+01 11 11 14
-2.633088e+00 5.212262e+00 -1.043830e+01 11 11 14
-2.158016e+00 5.205992e+00 -1.058731e+01 8 12 15
-2.500099e+00 5.198080e+00 -1.052764e+01 4 4 4
-2.750523e+00 5.210528e+00 -1.056684e+01 8 8 8
-2.345920e+00 5.192433e+00 -1.069282e+01 25 25 25
-2.038428e+00 5.127601e+00 -1.084955e+01 7 7 9
-1.980242e+00 5.102558e+00 -1.092085e+01 7 7 7
-2.365879e+00 5.101290e+00 -1.088325e+01 5 5 6
-1.761123e+00 5.075735e+00 -1.099911e+01 4 4 4
-2.000689e+00 5.061684e+00 -1.097962e+01 7 7 7
-1.932691e+00 5.099126e+00 -1.104131e+01 9 9 9
-1.932691e+00 5.099126e+00 -1.104131e+01 9 9 9
-2.763430e+00 5.087217e+00 -1.084259e+01 9 9 9
-2.464072e+00 5.083070e+00 -1.092101e+01 7 7 7
-2.388667e+00 5.074421e+00 -1.092348e+01 8 8 8
-2.316563e+00 5.074637e+00 -1.097780e+01 8 8 8
-2.780057e+00 5.086598e+00 -1.090623e+01 9 9 9
-2.780057e+00 5.086598e+00 -1.090623e+01 9 9 9
-2.168436e+00 5.045332e+00 -1.101439e+01 6 6 6
2.232495e+00 -9.307246e-01 -5.796504e+00 201 171 50
-2.635876e+00 5.058662e+00 -1.095172e+01 7 7 7
-2.799849e+00 5.058135e+00 -1.094997e+01 8 8 9
-2.799849e+00 5.058135e+00 -1.094997e+01 8 8 9
-2.113281e+00 5.040072e+00 -1.108889e+01 7 7 7
-2.113281e+00 5.040072e+00 -1.108889e+01 7 7 7
-2.654587e+00 5.037522e+00 -1.099789e+01 7 7 7
1.072066e+00 1.099795e+00 -8.335871e+00 21 18 19
9.201703e-01 1.213046e+00 -8.622791e+00 35 19 19
1.250889e+00 4.409574e-01 -8.036462e+00 18 15 16
1.196767e+00 5.173309e-01 -8.142435e+00 18 14 14
1.460380e+00 -2.202651e-02 -7.610471e+00 127 112 51
1.047046e+00 7.064614e-01 -8.419812e+00 44 39 31
1.035689e+00 5.566533e-01 -8.466682e+00 64 57 65
1.050210e+00 5.045272e-01 -8.441447e+00 46 40 47
1.033596e+00 3.942402e-01 -8.534336e+00 97 94 107
1.166763e+00 1.070976e-01 -8.257991e+00 18 15 21
1.025716e+00 3.072609e-01 -8.572068e+00 116 111 125
1.152456e+00 4.967107e-02 -8.280998e+00 28 24 36
-1.611249e+00 2.805335e+00 -1.123901e+01 18 13 10
1.776731e+00 9.520733e+00 -8.328070e+00 6 17 33
-1.356248e+00 1.100268e+01 -1.004391e+01 93 75 95
-2.310843e+00 1.050498e+01 -9.944369e+00 51 33 21
-2.111940e+00 1.048438e+01 -1.000897e+01 52 28 20
-2.088581e+00 1.046087e+01 -1.008406e+01 8 8 9
3.071780e+00 5.113832e+00 -7.391973e+00 70 60 73
-1.454555e+00 1.042020e+01 -1.019056e+01 51 26 21
-1.542972e+00 1.040158e+01 -1.023494e+01 8 8 6
-1.453555e+00 1.039363e+01 -1.026853e+01 9 8 6
4.016102e+00 1.414909e+00 -5.337079e+00 108 84 100
-1.235419e+00 1.032633e+01 -1.029180e+01 12 10 7
-1.120785e-01 1.025960e+01 -1.073242e+01 9 9 7
2.805546e+00 5.405195e+00 -7.978272e+00 77 61 69
2.805546e+00 5.405195e+00 -7.978272e+00 77 61 69
-1.564071e+00 9.910735e+00 -1.042368e+01 9 9 9
-1.199993e+00 9.865915e+00 -1.052108e+01 11 11 12
-3.173085e-01 9.811976e+00 -1.084843e+01 16 17 20
-3.173085e-01 9.811976e+00 -1.084843e+01 16 17 20
-8.608683e-01 9.763380e+00 -1.083507e+01 9 9 11
-1.042043e+00 3.304805e-01 -4.741943e+00 214 142 155
2.313209e+00 6.641861e-01 -5.544776e+00 218 168 82
-9.243725e-01 5.214039e-02 -4.815160e+00 190 124 138
-9.492815e-01 1.157502e-02 -4.866750e+00 183 117 135
-6.810133e-01 7.997366e+00 -1.078658e+01 103 92 115
2.013306e-02 7.737970e+00 -1.106511e+01 40 20 22
-5.328220e-01 7.401655e+00 -1.103933e+01 49 37 40
-2.690738e-01 7.368084e+00 -1.113540e+01 33 32 65
-8.074378e-01 -1.493875e-01 -5.046691e+00 27 43 93
-1.610378e+00 5.476908e+00 -9.921720e+00 6 12 12
-1.660646e+00 5.450168e+00 -9.954100e+00 8 66 101
-1.660646e+00 5.450168e+00 -9.954100e+00 8 66 101
-1.247928e+00 5.475169e+00 -1.006257e+01 7 13 51
-1.782078e+00 5.369643e+00 -1.007622e+01 21 83 108
9.962022e-02 1.452489e-01 -5.818083e+00 185 24 38
-2.273255e+00 5.225005e+00 -1.050587e+01 7 7 6
-2.791592e+00 5.193382e+00 -1.072470e+01 7 7 7
2.133233e+00 -5.250496e-01 -6.051629e+00 177 147 30
2.228353e+00 -8.648854e-01 -5.765980e+00 185 158 45
-6.025047e-01 3.427957e+00 -9.539463e+00 40 46 67
-6.025047e-01 3.427957e+00 -9.539463e+00 40 46 67
2.122110e+00 -6.207280e-01 -6.085355e+00 166 138 27
-5.485520e-01 3.356486e+00 -9.635028e+00 16 22 36
2.051504e+00 -6.478080e-01 -6.250160e+00 163 177 131
1.492474e+00 -3.529645e-01 -6.514602e+00 189 138 154
2.056825e+00 -8.119107e-01 -6.215864e+00 180 147 31
2.056825e+00 -8.119107e-01 -6.215864e+00 180 147 31
2.026795e+00 -7.864467e-01 -6.290183e+00 159 171 136
2.044878e+00 -8.744168e-01 -6.233489e+00 178 148 33
1.476735e+00 6.158254e-02 -7.566208e+00 16 15 12
1.725308e+00 -5.962343e-01 -6.958105e+00 206 180 63
9.350328e-01 7.730750e-01 -8.612673e+00 69 60 64
1.584754e+00 -4.043052e-01 -7.328999e+00 135 99 36
1.042578e+00 5.104330e-01 -8.496037e+00 75 69 81
8.861453e-01 7.235326e-01 -8.747162e+00 100 81 92
9.282175e-01 6.275677e-01 -8.670699e+00 97 84 100
9.282175e-01 6.275677e-01 -8.670699e+00 97 84 100
1.029602e+00 4.527502e-01 -8.520352e+00 90 85 92
1.426715e+00 -2.996459e-01 -7.703427e+00 183 161 54
-1.571315e+00 2.933618e+00 -1.109641e+01 92 39 14
-1.571315e+00 2.933618e+00 -1.109641e+01 92 39 14
8.787192e-01 5.906151e-01 -8.803018e+00 123 110 124
1.050349e+00 3.255089e-01 -8.517117e+00 65 63 77
1.283819e+00 -6.022353e-02 -8.085880e+00 138 121 48
8.265535e-01 5.476073e-01 -8.917546e+00 141 123 141
1.009691e+00 1.937487e-01 -8.617860e+00 137 134 150
8.642103e-01 3.508665e-01 -8.902826e+00 163 138 154
9.028700e-01 2.793500e-01 -8.810494e+00 153 135 146
8.044820e-01 2.107276e-01 -9.005711e+00 163 145 158
-1.714470e+00 1.106299e+01 -9.968602e+00 89 79 96
-9.761451e-01 1.091162e+01 -1.013889e+01 91 81 103
4.010454e+00 1.611329e+00 -5.231477e+00 114 92 108
-2.220124e+00 1.046773e+01 -9.976238e+00 51 25 14
-1.340019e+00 1.044310e+01 -1.032022e+01 6 8 9
2.291668e+00 1.576956e+00 -5.472956e+00 211 160 56
-1.090053e-01 1.016107e+01 -1.077142e+01 71 60 65
-1.215977e+00 9.789493e+00 -1.074521e+01 4 7 6
-1.015508e+00 3.171539e-01 -4.725744e+00 247 187 198
2.353516e+00 6.585608e-01 -5.436100e+00 225 168 76
2.372059e+00 4.879838e-01 -5.365732e+00 222 197 133
-9.341671e-01 7.913729e+00 -1.082476e+01 46 47 74
3.226132e-02 7.933588e+00 -1.109320e+01 37 20 17
-1.418418e-01 7.834292e+00 -1.105501e+01 37 43 74
-5.149220e-01 -1.591459e-01 -4.927083e+00 145 87 100
-6.000078e-01 -2.065770e-01 -5.038377e+00 240 182 195
-6.304011e-01 -2.019046e-01 -5.051781e+00 237 169 184
-1.450488e+00 5.488179e+00 -9.974024e+00 123 110 133
-1.728609e+00 5.468654e+00 -9.946868e+00 9 21 26
-2.024241e+00 5.450236e+00 -9.895464e+00 11 55 66
-9.147057e-01 5.503063e+00 -1.014112e+01 10 38 77
-1.181375e+00 5.462611e+00 -1.014974e+01 10 66 96
-2.159780e+00 5.386719e+00 -1.009715e+01 18 78 101
-3.388784e-01 3.333925e+00 -9.696269e+00 17 20 36
2.084030e+00 -5.665804e-01 -6.183364e+00 234 195 67
-4.213252e-01 3.301568e+00 -9.832832e+00 26 27 36
2.066488e+00 -7.573546e-01 -6.206599e+00 162 135 20
1.522929e+00 -4.032963e-01 -6.514610e+00 195 143 155
9.493805e-01 1.473025e+00 -8.582541e+00 33 18 18
9.493805e-01 1.473025e+00 -8.582541e+00 33 18 18
2.058377e+00 -9.576877e-01 -6.179135e+00 180 151 32
9.075624e-01 1.374077e+00 -8.657868e+00 45 35 28
1.261481e+00 6.070521e-01 -8.024375e+00 10 9 7
1.187092e+00 5.754171e-01 -8.168141e+00 44 38 41
1.622956e+00 -2.901955e-01 -7.264581e+00 196 174 49
1.238583e+00 3.668145e-01 -8.071218e+00 10 11 10
-5.711266e-01 1.952034e+00 -9.699996e+00 39 34 34
8.571841e-01 8.657440e-01 -8.806014e+00 84 78 90
1.568139e+00 -4.525764e-01 -7.394442e+00 194 172 53
8.951928e-01 4.852640e-01 -8.800885e+00 128 66 83
-4.711793e-01 1.089247e+00 -9.536180e+00 18 18 18
-5.291764e-01 1.097354e+01 -1.033049e+01 75 70 90
-1.087349e+00 1.049837e+01 -1.025214e+01 18 19 20
-1.230578e-01 9.830116e+00 -1.090682e+01 36 40 65
-2.820844e-01 9.830906e+00 -1.097045e+01 9 8 9
-4.743504e-01 7.521063e+00 -1.102544e+01 16 16 21
7.827705e-01 9.579832e-02 -5.643296e+00 218 44 78
-1.079883e+00 5.501681e+00 -1.001552e+01 99 92 111
-1.082881e+00 5.487873e+00 -1.000523e+01 99 92 111
-2.089460e+00 5.484864e+00 -9.871800e+00 23 87 122
-2.173730e+00 5.455212e+00 -9.891128e+00 7 10 10
-1.971589e+00 5.433961e+00 -9.982612e+00 148 134 156
-1.027962e+00 5.440396e+00 -1.021794e+01 70 63 69
-2.040236e+00 5.351747e+00 -1.016622e+01 29 83 111
-1.802534e+00 5.295465e+00 -1.034522e+01 121 16 13
-1.990372e+00 5.213538e+00 -1.050710e+01 10 8 6
-1.604872e+00 5.177248e+00 -1.070828e+01 7 9 9
1.212986e+00 6.982843e-01 -8.045511e+00 11 10 11
-1.755597e+00 3.133005e+00 -1.086005e+01 18 15 16
1.228447e+00 2.783277e-01 -8.113156e+00 10 10 8
1.480359e+00 -2.195801e-01 -7.611381e+00 175 153 48
-8.632883e-01 1.903122e+00 -9.822475e+00 21 19 20
1.154834e+00 -2.753408e-02 -8.287183e+00 19 14 18
9.379463e-01 7.291378e-02 -8.705970e+00 154 152 173
2.080168e+00 -8.051201e-01 -8.670319e+00 89 72 36
-2.363742e+00 1.041283e+01 -1.002108e+01 6 6 4
2.366287e+00 1.389324e+00 -5.210963e+00 210 188 122
-1.825388e+00 1.045981e+01 -1.022622e+01 6 6 6
-1.003113e+00 1.040444e+01 -1.038049e+01 77 84 110
-1.151784e-01 1.037330e+01 -1.066882e+01 73 80 103
2.551275e+00 4.423421e-01 -4.904563e+00 238 45 69
-3.357023e-01 9.608059e+00 -1.106052e+01 9 6 7
-9.640230e-01 7.985436e+00 -1.073040e+01 107 57 71
-9.455239e-02 8.007801e+00 -1.102684e+01 113 71 91
-8.053828e-02 7.783603e+00 -1.112628e+01 91 73 83
-8.053828e-02 7.783603e+00 -1.112628e+01 91 73 83
-6.862674e-01 -1.451961e-01 -4.936962e+00 233 172 181
-1.693110e+00 5.266547e+00 -1.061139e+01 10 5 7
-1.681771e+00 3.304027e+00 -1.062928e+01 108 44 24
-5.417697e-01 2.084070e+00 -9.588694e+00 30 27 23
1.455431e+00 -1.618989e-01 -7.643522e+00 123 108 57
1.467796e+00 -2.850931e-01 -7.609877e+00 183 161 44
-1.798007e+00 5.488310e+00 -9.849352e+00 14 83 115
-8.036150e-01 5.496853e+00 -1.012122e+01 99 94 109
-2.565098e+00 5.241948e+00 -1.046845e+01 8 8 8
1.551694e+00 -3.971730e-01 -7.385304e+00 146 105 64
-1.452889e+00 5.333040e+00 -1.025284e+01 129 23 24
-1.189484e+00 1.084178e+01 -1.016807e+01 109 102 124
-1.189484e+00 1.084178e+01 -1.016807e+01 109 102 124
-2.001119e+00 5.299517e+00 -1.037984e+01 6 6 5
1.199812e+00 1.876600e-01 -8.189033e+00 14 12 12
-2.238316e+00 3.174826e+00 -1.108899e+01 18 18 18
1.566518e+00 -8.099579e-01 -7.215960e+00 200 176 50
1.140739e+00 -7.392627e-01 -8.337566e+00 163 161 188
2.416087e+00 1.632994e+00 -4.994008e+00 142 116 15
-1.969075e+00 5.470793e+00 -1.003168e+01 146 132 154
-1.969075e+00 5.470793e+00 -1.003168e+01 146 132 154
2.950646e+00 7.806070e+00 -7.370186e+00 43 39 54
2.043849e+00 9.671429e+00 -7.762336e+00 1 12 31
1.898981e+00 9.753226e+00 -7.827552e+00 16 47 86
2.324864e+00 1.872707e+00 -5.148836e+00 184 164 103
2.618003e+00 9.922259e+00 -8.170649e+00 26 27 42
2.355007e+00 1.606809e+00 -5.176776e+00 190 171 68
2.266115e+00 1.661562e+00 -5.426615e+00 179 146 51
2.266115e+00 1.661562e+00 -5.426615e+00 179 146 51
2.385824e+00 1.067813e+00 -5.233084e+00 204 167 77
2.474094e+00 4.465016e-01 -5.093898e+00 224 179 188
2.430413e+00 6.221557e-01 -5.209123e+00 204 177 117
2.934547e+00 5.717149e+00 -7.719747e+00 87 79 94
2.450569e+00 5.951385e-01 -5.267060e+00 203 171 105
2.452694e+00 3.163643e-01 -5.139650e+00 219 177 187
2.150848e+00 1.743762e+00 -5.798943e+00 173 135 57
2.448344e+00 9.418626e-02 -5.141073e+00 198 52 74
2.373220e+00 8.059521e+00 -8.900714e+00 72 65 81
2.124618e+00 1.722907e+00 -5.842255e+00 176 133 54
2.362084e+00 4.589024e-01 -5.350819e+00 202 170 113
2.430720e+00 -2.355024e-02 -5.213674e+00 228 162 178
2.278413e+00 7.861650e+00 -9.193678e+00 51 39 46
2.111763e+00 1.578564e+00 -5.959531e+00 171 129 49
2.327480e+00 6.522716e-01 -5.569115e+00 205 168 95
2.049823e+00 8.796704e+00 -9.594883e+00 56 51 65
2.199097e+00 8.347321e+00 -9.464426e+00 71 62 81
2.416928e+00 -5.309211e-02 -5.263354e+00 219 189 195
2.141871e+00 8.401032e+00 -9.518640e+00 48 34 42
1.990892e+00 8.709580e+00 -9.721143e+00 48 42 54
-4.835191e+00 1.184394e+01 -8.607946e+00 18 14 15
2.387942e+00 -4.447159e-01 -5.345865e+00 228 161 175
2.172248e+00 6.595106e-01 -5.988366e+00 200 166 60
2.212345e+00 7.354536e-01 -6.030009e+00 200 166 60
2.377061e+00 -5.222622e-01 -5.372491e+00 227 170 182
-3.925839e+00 1.016293e+01 -8.787864e+00 86 65 65
2.164900e-02 1.018788e+01 -1.065536e+01 12 10 19
2.368346e+00 -4.996406e-01 -5.416649e+00 232 179 184
-3.846926e+00 9.575738e+00 -8.846505e+00 85 69 67
9.875184e-01 4.756318e-01 -5.501424e+00 191 135 155
-1.013274e+00 5.383653e-01 -4.647323e+00 217 146 161
-3.331415e+00 1.029371e+01 -9.625360e+00 26 24 27
-3.941294e+00 9.582381e+00 -9.011496e+00 86 67 66
-1.121582e+00 5.744960e-01 -4.669067e+00 208 154 170
-4.175265e+00 9.134595e+00 -8.646798e+00 12 13 15
-3.654065e+00 1.018024e+01 -9.671156e+00 11 9 12
-5.510578e-01 3.056745e-02 -4.664582e+00 240 184 197
-8.701762e-01 2.732112e-01 -4.688340e+00 231 172 188
1.971021e+00 6.036393e-01 -6.224982e+00 80 31 8
-4.599090e-01 1.905406e-02 -4.727626e+00 202 154 165
-4.730905e-01 7.973322e-03 -4.755083e+00 216 166 181
-3.909818e+00 9.666867e+00 -9.761016e+00 24 21 26
-3.902264e+00 9.869327e+00 -9.905896e+00 10 11 13
9.270189e-01 3.486773e-02 -5.535488e+00 184 48 73
2.015759e+00 2.748324e-01 -6.271379e+00 169 131 49
