ply
format ascii 1.0
element face 0
property list uchar int vertex_indices
element vertex 934
property float x
property float y
property float z
property uchar diffuse_red
property uchar diffuse_green
property uchar diffuse_blue
end_header
1.648558e+00 -3.024642e+00 -1.248860e+01 54 48 60
1.545298e+00 -3.203156e+00 -1.294795e+01 81 74 84
1.428798e+00 -3.292215e+00 -1.317785e+01 47 38 45
1.176378e+00 -3.529363e+00 -1.387874e+01 57 53 64
2.337453e+00 -2.515505e+00 -1.046375e+01 64 53 67
2.485987e+00 -2.546279e+00 -1.007555e+01 67 55 65
1.723770e+00 -3.350795e+00 -1.237902e+01 96 91 106
2.328591e+00 -2.812771e+00 -1.057900e+01 57 46 52
1.297155e+00 -3.768998e+00 -1.348763e+01 44 38 49
2.224544e+00 -2.961683e+00 -1.086942e+01 108 100 118
2.020480e+00 -3.191995e+00 -1.138619e+01 91 78 87
1.620245e+00 -3.641514e+00 -1.260077e+01 42 35 47
2.470090e+00 -2.851556e+00 -1.011829e+01 103 99 121
1.586167e+00 -3.800393e+00 -1.275626e+01 36 26 32
2.432371e+00 -3.003707e+00 -1.029084e+01 101 92 109
2.060716e+00 -3.392705e+00 -1.133772e+01 39 35 50
2.128231e+00 -3.497214e+00 -1.113985e+01 53 51 64
2.257879e+00 -3.435285e+00 -1.085194e+01 57 46 60
2.229986e+00 -3.563685e+00 -1.096505e+01 81 79 96
2.434404e+00 -3.339170e+00 -1.036811e+01 101 97 119
2.734157e+00 -3.047219e+00 -9.428245e+00 53 44 58
2.766208e+00 -3.078208e+00 -9.378673e+00 78 67 82
2.613387e+00 -3.265780e+00 -9.844806e+00 61 53 71
2.859911e+00 -3.083024e+00 -9.130802e+00 123 117 137
7.437966e-01 1.623523e+00 -5.787636e+00 131 4 10
7.043510e-01 1.529041e+00 -5.824135e+00 113 5 7
9.739507e-01 1.543453e+00 -5.718021e+00 142 22 33
4.044532e-01 1.404576e+00 -5.745603e+00 99 2 3
5.970051e-01 1.437586e+00 -5.813143e+00 145 11 18
2.193689e+00 1.621274e+00 -5.906464e+00 191 163 109
2.193689e+00 1.621274e+00 -5.906464e+00 191 163 109
2.166909e+00 1.612265e+00 -5.957082e+00 181 130 43
2.301209e+00 1.576057e+00 -5.736778e+00 194 143 46
1.401269e-01 1.235046e+00 -5.668556e+00 149 14 20
2.536050e-01 1.217207e+00 -5.637082e+00 160 21 22
1.665181e+00 1.353051e+00 -5.455517e+00 69 30 30
1.665181e+00 1.353051e+00 -5.455517e+00 69 30 30
1.517284e+00 1.307483e+00 -5.374096e+00 94 50 54
-8.556785e-01 7.181415e-01 -4.572374e+00 175 107 129
-8.556785e-01 7.181415e-01 -4.572374e+00 175 107 129
-8.134707e-01 7.212205e-01 -4.572037e+00 178 107 123
-8.166948e-01 6.958700e-01 -4.567023e+00 228 165 173
-6.918230e-01 7.030169e-01 -4.583028e+00 225 172 181
1.281189e+00 1.070685e+00 -5.859166e+00 130 9 14
1.281189e+00 1.070685e+00 -5.859166e+00 130 9 14
-3.346582e-02 8.284071e-01 -5.506980e+00 117 8 8
-2.531726e-02 7.895729e-01 -5.503878e+00 163 21 33
3.493999e-02 7.794125e-01 -5.517419e+00 173 25 39
-5.714220e-01 6.113313e-01 -4.601198e+00 170 104 125
6.901956e-01 6.899566e-01 -5.520873e+00 193 28 44
-9.217202e-01 4.378932e-01 -4.617853e+00 168 156 199
-8.037943e-01 4.201631e-01 -4.621576e+00 165 217 254
8.943122e-01 6.227164e-01 -5.566873e+00 155 20 29
-9.698568e-01 3.766907e-01 -4.639549e+00 236 165 179
-4.486288e-01 3.510426e-01 -4.627122e+00 155 95 108
-4.020466e-01 3.047679e-01 -4.642612e+00 210 149 164
2.099740e+00 4.581952e-01 -6.226488e+00 124 82 37
-3.864711e-01 1.999771e-01 -4.662690e+00 224 163 173
2.422801e+00 4.258942e-01 -5.480889e+00 217 185 59
2.355562e+00 4.009959e-01 -5.547720e+00 217 189 124
6.838317e-01 5.392651e-02 -5.786880e+00 200 35 51
-7.833757e-01 -1.455712e-01 -5.036291e+00 251 253 253
1.138947e+00 -1.789538e-01 -5.320287e+00 206 142 144
2.175101e+00 -4.271306e-01 -6.067441e+00 229 197 56
2.175101e+00 -4.271306e-01 -6.067441e+00 229 197 56
1.870590e+00 -7.549739e-01 -6.399541e+00 193 138 145
2.425154e+00 -5.471490e-01 -5.381690e+00 221 198 215
2.424670e+00 -5.468500e-01 -5.380227e+00 221 198 215
2.086740e+00 -8.128365e-01 -6.265296e+00 217 191 83
2.122646e+00 -8.000322e-01 -6.185664e+00 214 191 78
2.098417e+00 -9.233811e-01 -6.229962e+00 212 189 69
1.921561e+00 -2.294376e+00 -1.160557e+01 51 42 44
1.996702e+00 -2.321292e+00 -1.146364e+01 62 46 53
-1.183276e+00 -2.766285e+00 -1.258441e+01 74 42 54
2.095911e+00 -2.307900e+00 -1.098403e+01 65 54 68
1.164558e+00 -3.316611e+00 -1.379831e+01 40 33 43
1.230695e+00 -3.360711e+00 -1.347377e+01 39 34 40
1.531227e+00 -3.472936e+00 -1.266147e+01 47 42 54
2.079215e+00 -3.144087e+00 -1.134743e+01 55 49 56
2.079215e+00 -3.144087e+00 -1.134743e+01 55 49 56
1.988156e+00 -3.229942e+00 -1.153153e+01 56 47 53
1.378597e+00 -3.975857e+00 -1.338090e+01 43 37 42
2.637621e+00 -2.795460e+00 -9.711559e+00 60 46 62
2.469443e+00 -3.236053e+00 -1.027900e+01 97 90 106
1.728965e+00 -4.301300e+00 -1.249923e+01 41 35 45
5.596979e-01 1.604312e+00 -5.863596e+00 155 16 33
2.229650e+00 1.580628e+00 -5.823137e+00 191 165 78
1.951504e-01 1.234356e+00 -5.653788e+00 157 17 29
1.551216e+00 1.234806e+00 -5.311533e+00 69 31 28
1.551216e+00 1.234806e+00 -5.311533e+00 69 31 28
-9.666213e-01 7.471221e-01 -4.589935e+00 133 74 96
-8.625379e-01 7.478964e-01 -4.578966e+00 226 167 179
-8.319484e-01 7.498382e-01 -4.575442e+00 224 166 176
-8.749798e-01 6.899361e-01 -4.585746e+00 226 164 177
-8.300718e-01 6.690078e-01 -4.600277e+00 226 155 169
-6.540786e-01 6.703902e-01 -4.578200e+00 233 177 193
-4.804525e-02 5.955679e-01 -5.416903e+00 108 10 22
9.069081e-01 5.905891e-01 -5.511145e+00 104 12 15
2.164419e+00 5.732108e-01 -6.171223e+00 194 162 102
1.440536e+00 4.266255e-01 -5.821943e+00 120 11 13
6.600900e-01 2.001575e-01 -5.649697e+00 114 5 13
9.514402e-01 2.219991e-01 -5.750588e+00 199 31 48
7.218722e-01 1.717960e-01 -5.669279e+00 110 14 20
1.100048e+00 1.083156e-01 -5.558159e+00 171 100 114
1.218624e+00 1.018451e-01 -5.508089e+00 94 36 40
9.486006e-01 -8.054210e-03 -5.606583e+00 66 13 21
9.565664e-01 -1.264405e-02 -5.493016e+00 170 108 123
5.572927e-01 -3.002425e-01 -5.679633e+00 188 32 46
1.105373e+00 -2.734440e-01 -5.345010e+00 220 155 163
1.990755e+00 -2.123914e+00 -1.137251e+01 54 41 42
1.480226e+00 -2.546972e+00 -1.224498e+01 110 83 65
1.522691e+00 -2.927886e+00 -1.281649e+01 60 47 59
1.710482e+00 -3.649655e+00 -1.240770e+01 10 10 12
1.704139e+00 -3.637269e+00 -1.236906e+01 10 10 12
2.143237e+00 -3.228159e+00 -1.114858e+01 52 41 50
7.239823e-01 1.664969e+00 -5.774555e+00 176 20 40
2.337478e+00 1.495299e+00 -5.524295e+00 199 144 53
2.337478e+00 1.495299e+00 -5.524295e+00 199 144 53
9.034583e-01 1.094762e+00 -5.691435e+00 103 3 5
-8.324188e-01 5.793812e-01 -4.504190e+00 179 225 255
-8.974340e-01 4.653172e-01 -4.630103e+00 181 230 255
-5.293656e-01 4.835079e-01 -4.670644e+00 235 181 195
1.534493e-01 5.639744e-01 -5.405524e+00 82 11 26
1.030886e+00 6.386622e-01 -5.511305e+00 44 10 8
-4.107650e-01 3.630238e-01 -4.620340e+00 209 148 163
-4.332655e-01 3.166445e-01 -4.628671e+00 156 99 112
2.388332e+00 4.614573e-01 -5.471338e+00 217 189 124
9.514865e-01 1.634148e-01 -5.702100e+00 97 4 5
2.154403e+00 -2.871820e-01 -6.125515e+00 223 187 47
1.996171e+00 -8.236493e-01 -6.442195e+00 214 187 67
2.062853e+00 -1.147547e+00 -6.281412e+00 216 190 68
2.068267e+00 -2.454813e+00 -1.128199e+01 95 85 102
2.601188e+00 -3.119006e+00 -9.826724e+00 53 42 52
2.327917e+00 -3.561782e+00 -1.067414e+01 37 33 48
9.271664e-02 1.332064e+00 -5.786013e+00 93 2 5
2.301121e+00 1.564916e+00 -5.539968e+00 194 169 114
2.876829e-01 1.226716e+00 -5.613459e+00 163 18 28
4.230461e-01 1.048036e+00 -5.569411e+00 171 150 172
1.912426e-01 6.329602e-01 -5.420093e+00 218 203 220
-5.149835e-01 4.423213e-01 -4.678385e+00 107 54 70
8.272859e-01 5.478053e-01 -5.516216e+00 95 0 2
-7.607814e-01 2.606905e-01 -4.638885e+00 208 146 165
9.877250e-01 5.876504e-02 -5.582102e+00 73 5 8
2.319113e+00 -8.731387e-02 -5.729973e+00 219 194 130
2.261445e+00 -1.072321e+00 -5.844714e+00 204 197 104
7.125008e-02 1.037600e+00 -5.637547e+00 91 0 1
4.769197e-01 9.624252e-01 -5.563491e+00 163 18 29
2.251777e+00 8.917252e-01 -5.918864e+00 214 179 57
3.838699e-01 4.792544e-01 -5.422776e+00 70 6 6
1.352481e+00 5.810513e-01 -5.760726e+00 164 21 25
-1.047378e+00 2.139944e-01 -4.847401e+00 244 193 206
3.207404e-01 -7.088987e-02 -5.895177e+00 197 32 55
-7.968986e-01 3.927308e-01 -4.657665e+00 186 201 240
9.943290e-01 5.550190e-01 -5.515670e+00 212 193 208
9.943290e-01 5.550190e-01 -5.515670e+00 212 193 208
1.303439e+00 2.089785e-01 -5.558433e+00 188 119 132
1.033983e+00 2.185930e-03 -5.506808e+00 180 116 131
1.204556e+00 -2.074192e-01 -5.250723e+00 212 144 156
-8.546972e-01 6.211541e-01 -4.629406e+00 192 206 241
-6.663586e-01 3.402742e-01 -4.691524e+00 200 140 158
9.302616e-02 3.503703e-01 -5.519029e+00 152 22 32
8.648315e-01 6.589964e-02 -5.652367e+00 210 178 197
-7.816735e-01 -2.046347e-01 -5.056313e+00 23 24 29
-8.126486e-01 5.139418e-01 -4.605707e+00 20 27 44
-8.126486e-01 5.139418e-01 -4.605707e+00 20 27 44
-8.110717e-01 5.145273e-01 -4.606869e+00 20 27 44
-1.673055e+00 3.429314e+00 -1.058746e+01 97 44 18
-3.349308e+00 3.794948e+00 -1.162537e+01 143 85 86
-4.861318e+00 3.736497e+00 -1.144314e+01 128 70 58
-4.861318e+00 3.736497e+00 -1.144314e+01 128 70 58
-4.678190e+00 3.703616e+00 -1.137494e+01 135 75 58
-5.276805e+00 3.674163e+00 -1.130350e+01 111 38 15
-5.276805e+00 3.674163e+00 -1.130350e+01 111 38 15
-4.705124e+00 3.669395e+00 -1.143228e+01 125 48 26
-5.333759e+00 3.651391e+00 -1.137533e+01 118 62 55
-5.333759e+00 3.651391e+00 -1.137533e+01 118 62 55
-4.714573e+00 3.615117e+00 -1.139257e+01 135 72 66
-4.870882e+00 3.579620e+00 -1.139821e+01 123 47 25
-4.858324e+00 3.537680e+00 -1.124722e+01 123 46 20
-4.858324e+00 3.537680e+00 -1.124722e+01 123 46 20
-3.622481e+00 3.575858e+00 -1.157378e+01 132 53 29
-5.347598e+00 3.571663e+00 -1.144595e+01 123 70 69
-5.347598e+00 3.571663e+00 -1.144595e+01 123 70 69
-4.947531e+00 3.517345e+00 -1.134058e+01 129 71 70
-3.169765e+00 3.534032e+00 -1.166803e+01 141 90 81
-3.756984e+00 3.529751e+00 -1.169765e+01 130 56 28
-3.662101e+00 3.506610e+00 -1.162289e+01 129 58 43
-5.318575e+00 3.442728e+00 -1.136317e+01 125 72 64
-5.146591e+00 3.440086e+00 -1.138184e+01 128 72 58
-5.146591e+00 3.440086e+00 -1.138184e+01 128 72 58
1.885140e+00 1.951594e+00 -6.633469e+00 101 76 44
2.358828e+00 1.619921e+00 -5.464585e+00 195 164 83
2.358828e+00 1.619921e+00 -5.464585e+00 195 164 83
-3.731562e+00 3.424201e+00 -1.164083e+01 136 56 30
-3.731562e+00 3.424201e+00 -1.164083e+01 136 56 30
-3.741898e+00 3.361758e+00 -1.154429e+01 143 79 73
-1.351477e+00 2.945033e+00 -1.119605e+01 70 31 17
1.437219e+00 1.413517e+00 -5.389208e+00 148 108 118
2.313238e+00 1.401826e+00 -5.573615e+00 199 146 52
1.532824e-01 1.412823e+00 -5.769499e+00 157 20 29
-8.651235e-01 2.253215e+00 -9.687813e+00 35 26 28
4.074020e-01 1.056345e+00 -5.564543e+00 225 194 213
-7.483061e-01 8.658360e-01 -4.598664e+00 207 155 167
-6.220246e-01 8.328309e-01 -4.622566e+00 196 145 161
-9.031923e-01 7.962472e-01 -4.597369e+00 192 143 161
-7.749675e-01 7.943464e-01 -4.587013e+00 216 161 173
4.876971e-02 9.365949e-01 -5.618969e+00 157 16 22
3.986298e-01 9.128926e-01 -5.548231e+00 197 134 154
-6.733617e-01 7.215100e-01 -4.576359e+00 146 87 106
-1.129829e-01 7.889634e-01 -5.473302e+00 120 11 14
2.037783e+00 8.335618e-01 -5.775469e+00 172 117 124
-6.756803e-01 6.525865e-01 -4.572304e+00 216 151 165
1.471696e+00 7.855971e-01 -5.758933e+00 132 12 11
-5.596736e-01 6.312861e-01 -4.604629e+00 235 171 178
-9.673714e-01 5.797865e-01 -4.575457e+00 239 176 188
-3.934925e-01 5.361164e-01 -4.735057e+00 202 154 165
3.587492e-02 5.627675e-01 -5.379546e+00 193 170 185
-4.369088e-01 4.095755e-01 -4.637305e+00 177 118 132
2.116751e+00 5.293033e-01 -6.204357e+00 138 85 16
-4.429093e-01 3.866491e-01 -4.632987e+00 187 133 147
-9.034005e-01 2.552114e-01 -4.686227e+00 217 155 166
-4.351163e-01 2.462935e-01 -4.643231e+00 216 163 174
2.463701e+00 -1.717979e-01 -5.305929e+00 228 196 207
2.190939e+00 -2.205184e-01 -6.051005e+00 174 144 32
5.009789e-01 -2.172164e-01 -5.940937e+00 186 32 41
2.054021e+00 -2.775285e-01 -6.091378e+00 179 127 103
1.009179e+00 -3.336274e-01 -5.369765e+00 207 143 156
2.426355e+00 -4.514898e-01 -5.389130e+00 230 189 193
2.144043e+00 -5.583883e-01 -6.154621e+00 177 147 42
2.122937e+00 -1.992626e+00 -1.095751e+01 91 79 87
2.122937e+00 -1.992626e+00 -1.095751e+01 91 79 87
2.261200e+00 -2.005794e+00 -1.071289e+01 71 60 79
2.257290e+00 -1.066334e+00 -5.833665e+00 197 196 105
2.083636e+00 -2.181187e+00 -1.121978e+01 68 55 68
2.224901e+00 -1.716204e+00 -8.371477e+00 177 164 132
1.319685e+00 -2.903023e+00 -1.349967e+01 45 36 39
1.328977e+00 -2.926875e+00 -1.332586e+01 64 56 68
1.889425e+00 -2.590761e+00 -1.185355e+01 60 48 58
2.401298e+00 -2.387306e+00 -1.041625e+01 101 91 104
2.340475e+00 -2.518318e+00 -1.047690e+01 64 53 67
2.340475e+00 -2.518318e+00 -1.047690e+01 64 53 67
1.126217e+00 -3.511824e+00 -1.408988e+01 32 27 34
1.799803e+00 -3.150445e+00 -1.216786e+01 76 72 86
1.919841e+00 -3.016827e+00 -1.169588e+01 89 85 100
2.377370e+00 -2.837184e+00 -1.038644e+01 57 46 59
1.499190e+00 -3.605112e+00 -1.304134e+01 58 54 67
1.787956e+00 -3.411282e+00 -1.218932e+01 44 36 48
2.041792e+00 -3.225210e+00 -1.150172e+01 91 78 87
2.190391e+00 -3.106709e+00 -1.106309e+01 54 48 58
2.582097e+00 -2.749212e+00 -9.815531e+00 46 35 44
1.190877e+00 -4.073467e+00 -1.408777e+01 42 33 36
1.921143e+00 -3.429728e+00 -1.176092e+01 52 47 69
2.518996e+00 -2.950583e+00 -1.005567e+01 79 70 88
2.751756e+00 -2.915417e+00 -9.430471e+00 118 109 127
2.569443e+00 -3.179535e+00 -9.894408e+00 91 78 88
2.890341e+00 -2.915401e+00 -8.947786e+00 56 47 63
1.554448e+00 -4.279052e+00 -1.295267e+01 45 43 54
2.170717e+00 -3.679802e+00 -1.093955e+01 88 85 102
9.555171e-01 -5.028360e+00 -1.444197e+01 48 48 58
2.185532e+00 -3.799961e+00 -1.099459e+01 89 88 105
1.438956e+00 -4.627295e+00 -1.327571e+01 21 20 25
-3.754388e+00 3.812597e+00 -1.159878e+01 147 93 87
-5.177590e+00 3.670706e+00 -1.130926e+01 115 40 24
2.331755e+00 1.636950e+00 -5.510861e+00 197 170 94
6.495096e-01 1.616088e+00 -5.827518e+00 176 23 34
-1.407904e+00 2.977966e+00 -1.106655e+01 72 24 13
7.387152e-01 1.486025e+00 -5.830338e+00 118 1 4
1.208001e+00 1.413730e+00 -5.761563e+00 186 135 149
-8.207900e-01 8.111803e-01 -4.626697e+00 212 154 170
-2.489867e-03 9.819067e-01 -5.692941e+00 76 1 0
-4.027441e-01 7.508374e-01 -4.752012e+00 50 20 17
-5.892492e-01 7.318078e-01 -4.614884e+00 228 163 173
2.299916e+00 8.840361e-01 -5.681934e+00 215 184 100
8.549210e-02 8.195568e-01 -5.538221e+00 184 28 41
-6.101694e-01 6.563928e-01 -4.586124e+00 175 117 131
-5.448255e-01 6.060211e-01 -4.621599e+00 237 174 184
2.110931e-02 6.903440e-01 -5.436201e+00 157 20 33
1.898443e-01 6.776972e-01 -5.426379e+00 71 5 13
3.987224e-01 6.321934e-01 -5.399241e+00 243 214 220
6.544645e-01 6.323391e-01 -5.499858e+00 167 20 29
1.806869e-01 5.889343e-01 -5.388461e+00 75 20 46
2.372122e+00 6.091493e-01 -5.556923e+00 211 158 64
-7.024375e-01 4.601973e-01 -4.620418e+00 183 160 191
-4.053839e-01 3.956427e-01 -4.662352e+00 189 126 142
6.261607e-02 3.710650e-01 -5.510208e+00 211 43 71
-5.896944e-01 2.923204e-01 -4.580374e+00 240 184 194
-5.507670e-01 2.517849e-01 -4.605068e+00 240 183 198
2.069188e+00 2.925268e-01 -6.330345e+00 175 140 44
-4.349829e-01 2.035951e-01 -4.633209e+00 212 159 172
7.636721e-01 1.955955e-01 -5.785716e+00 209 36 57
7.934535e-01 1.929591e-01 -5.737943e+00 214 37 60
1.488572e+00 4.625031e-02 -5.269774e+00 207 146 155
2.457401e+00 -2.104798e-01 -5.316816e+00 234 194 197
2.103503e+00 -2.840973e-01 -6.130611e+00 120 75 16
1.243337e+00 -2.371443e-01 -5.250934e+00 217 154 158
2.453905e+00 -2.606562e-01 -5.269922e+00 231 191 211
2.126812e+00 -3.205591e-01 -6.121565e+00 97 62 2
1.241906e+00 -2.656626e-01 -5.265093e+00 188 125 145
5.839438e-01 -3.245291e-01 -5.618116e+00 185 30 48
2.440485e+00 -3.291755e-01 -5.353043e+00 227 195 196
1.993242e+00 -5.133856e-01 -6.436502e+00 228 192 72
2.420969e+00 -4.908886e-01 -5.408346e+00 231 184 196
2.420698e+00 -5.705069e-01 -5.436161e+00 224 69 105
2.238108e+00 -1.947557e+00 -8.333678e+00 113 98 79
2.378256e+00 -2.064758e+00 -8.036528e+00 188 178 144
1.595954e+00 -3.407497e+00 -1.273166e+01 88 85 104
1.995578e+00 -3.246210e+00 -1.157510e+01 56 47 53
2.706820e+00 -2.685657e+00 -9.484401e+00 58 41 44
2.706820e+00 -2.685657e+00 -9.484401e+00 58 41 44
9.601314e-01 -4.255352e+00 -1.456562e+01 10 10 12
2.114074e+00 -3.439441e+00 -1.116879e+01 84 78 96
-2.055921e+00 -6.678033e+00 -1.986411e+01 80 73 88
2.615618e+00 -3.170097e+00 -9.652937e+00 117 111 134
1.540814e+00 -4.430258e+00 -1.294788e+01 38 35 48
1.540814e+00 -4.430258e+00 -1.294788e+01 38 35 48
-2.000743e+00 -7.147500e+00 -2.034842e+01 55 53 69
-3.642842e+00 3.815679e+00 -1.145981e+01 138 48 24
3.003978e-01 1.679786e+00 -5.803250e+00 115 8 12
2.172122e+00 1.616348e+00 -5.971436e+00 181 130 43
3.595826e-01 1.518266e+00 -5.787316e+00 129 2 6
2.144759e+00 1.601914e+00 -6.002776e+00 173 139 72
-5.542176e-01 2.362815e+00 -9.657903e+00 12 10 10
1.199682e+00 1.074291e+00 -5.190850e+00 185 131 143
1.236694e+00 1.207841e+00 -5.905546e+00 132 11 16
1.286946e+00 1.109918e+00 -5.858090e+00 174 24 37
-2.224958e-02 9.485251e-01 -5.658141e+00 115 11 13
-9.442590e-01 7.205881e-01 -4.578719e+00 229 167 181
1.586048e-01 8.059870e-01 -5.533249e+00 181 25 39
-7.349781e-01 6.697114e-01 -4.563824e+00 235 173 186
-7.694233e-01 6.517543e-01 -4.588021e+00 226 155 168
8.428320e-02 7.552579e-01 -5.519824e+00 113 3 6
-5.706140e-01 6.116907e-01 -4.599396e+00 170 104 125
4.610239e-01 6.880134e-01 -5.388605e+00 242 226 228
3.206710e-01 6.717971e-01 -5.333414e+00 218 198 209
-7.041126e-01 5.762680e-01 -4.641354e+00 246 229 240
-5.455891e-01 5.638224e-01 -4.616400e+00 189 126 143
-5.455891e-01 5.638224e-01 -4.616400e+00 189 126 143
1.447294e+00 6.946260e-01 -5.788166e+00 163 24 31
-5.579215e-02 6.299367e-01 -5.408843e+00 210 35 60
1.192878e+00 6.237684e-01 -5.638616e+00 148 18 24
1.425412e+00 6.214239e-01 -5.766535e+00 162 24 28
-4.474519e-01 4.990492e-01 -4.684065e+00 226 170 182
3.930268e-01 5.464294e-01 -5.456220e+00 158 25 44
1.978618e+00 5.817358e-01 -6.270104e+00 128 70 63
-3.303198e-01 4.243296e-01 -4.670223e+00 207 154 169
-8.606379e-01 3.945872e-01 -4.602546e+00 161 178 219
-3.162367e-01 3.607487e-01 -4.731172e+00 176 116 134
5.307578e-01 2.631432e-01 -5.669965e+00 222 40 64
1.190599e+00 2.609861e-01 -5.767600e+00 185 31 43
4.987828e-01 2.288563e-01 -5.655904e+00 125 4 14
1.130981e+00 2.511646e-02 -5.414903e+00 184 123 138
-5.196444e-01 2.802433e-02 -4.652653e+00 242 194 208
-6.555826e-01 -1.016862e-02 -4.644453e+00 249 199 210
-4.806640e-01 -5.644846e-02 -4.798959e+00 228 179 190
-9.165699e-01 -1.113641e-01 -5.005772e+00 230 162 175
5.492569e-01 -2.124775e-01 -5.774791e+00 173 27 36
2.070919e+00 -2.481952e-01 -6.115523e+00 113 69 10
7.288019e-01 -2.414057e-01 -5.494745e+00 190 29 45
7.646039e-01 -3.787585e-01 -5.511281e+00 196 30 48
2.010407e+00 -8.018917e-01 -6.450074e+00 219 187 72
1.849064e+00 -1.089790e+00 -6.720549e+00 204 181 69
1.177585e+00 -2.273014e+00 -1.209367e+01 121 95 72
1.215564e-01 -2.563916e+00 -1.231094e+01 107 80 72
1.603643e+00 -2.735491e+00 -1.248580e+01 47 39 44
1.181635e+00 -3.085572e+00 -1.377123e+01 44 38 47
-4.677219e-01 -3.068565e+00 -1.300825e+01 106 82 85
-1.471628e+00 -3.221461e+00 -1.334185e+01 85 77 89
1.915712e+00 -3.264047e+00 -1.178915e+01 51 46 60
2.444160e+00 -2.907874e+00 -1.027299e+01 60 52 63
2.444160e+00 -2.907874e+00 -1.027299e+01 60 52 63
2.634207e+00 -2.789652e+00 -9.699696e+00 60 46 62
5.895115e-01 -4.070540e+00 -1.377558e+01 12 12 12
2.771166e+00 -2.781537e+00 -9.226723e+00 56 44 54
7.011983e-01 -4.350585e+00 -1.420531e+01 10 10 10
7.011983e-01 -4.350585e+00 -1.420531e+01 10 10 10
2.276981e+00 -3.833443e+00 -1.082074e+01 84 79 98
-3.077436e+00 3.535047e+00 -1.169579e+01 136 51 17
-3.077436e+00 3.535047e+00 -1.169579e+01 136 51 17
4.123905e-01 1.517451e+00 -5.830110e+00 124 3 10
5.545647e-01 1.482866e+00 -5.743415e+00 140 8 15
2.181290e+00 1.559966e+00 -5.948956e+00 188 163 106
1.431144e+00 1.337630e+00 -5.327704e+00 127 84 93
-9.049307e-01 7.664730e-01 -4.571869e+00 152 97 120
-7.669094e-01 7.384179e-01 -4.565331e+00 224 165 176
1.368845e+00 8.986517e-01 -5.758754e+00 130 11 17
1.054212e+00 6.907402e-01 -5.614335e+00 189 32 43
2.713370e-01 6.006211e-01 -5.409360e+00 161 131 139
-3.253330e-01 3.040989e-01 -4.696487e+00 189 128 143
3.558098e-01 -2.662632e-01 -6.075808e+00 163 22 33
5.186636e-01 -2.753188e-01 -5.791613e+00 178 28 43
5.588672e-01 -1.882847e+00 -1.219297e+01 109 86 68
2.050559e+00 -1.162675e+00 -6.259178e+00 212 187 63
2.050559e+00 -1.162675e+00 -6.259178e+00 212 187 63
1.356037e+00 -2.505683e+00 -1.228741e+01 17 29 48
2.231370e+00 -1.870746e+00 -8.363820e+00 178 170 139
2.137634e+00 -3.219843e+00 -1.112056e+01 52 41 50
2.667692e+00 -3.092272e+00 -1.003998e+01 98 97 121
2.593344e+00 -3.108199e+00 -9.795247e+00 53 42 52
-1.725576e+00 3.105806e+00 -1.112120e+01 95 48 19
6.090798e-01 1.630667e+00 -5.857960e+00 64 2 0
2.322057e+00 1.348607e+00 -5.567131e+00 198 170 98
8.239205e-01 9.187895e-01 -5.628714e+00 151 15 29
-1.436178e-01 7.188848e-01 -5.414929e+00 151 13 29
2.075741e+00 7.389409e-01 -5.936653e+00 196 141 142
2.356434e+00 6.366643e-01 -5.582946e+00 214 185 121
-9.363557e-01 3.942441e-01 -4.660453e+00 241 190 207
2.152312e+00 4.497459e-01 -6.225306e+00 188 146 42
-8.605433e-01 1.414169e-01 -4.683380e+00 237 179 193
2.682813e-01 5.245773e-02 -6.025180e+00 207 30 52
2.444866e+00 -1.804989e-01 -5.359152e+00 224 38 63
4.014721e-01 -2.206684e-01 -5.979182e+00 206 32 56
2.462728e+00 -2.516096e-01 -5.318814e+00 227 178 194
2.447823e+00 -3.206155e-01 -5.320208e+00 222 182 193
2.447823e+00 -3.206155e-01 -5.320208e+00 222 182 193
2.023682e+00 -4.637540e-01 -6.131729e+00 192 140 152
1.820447e+00 -2.133368e+00 -1.189971e+01 90 77 87
4.686236e-01 -3.203172e+00 -1.289213e+01 105 80 64
2.343888e+00 -1.969334e+00 -8.093442e+00 188 174 148
2.902946e+00 -2.827236e+00 -8.933187e+00 60 49 63
1.406007e+00 -4.414237e+00 -1.333232e+01 68 65 75
2.330975e+00 -3.569226e+00 -1.068915e+01 37 33 48
8.078117e-01 -4.916234e+00 -1.455087e+01 42 42 51
-7.082721e-01 3.178225e+00 -1.017010e+01 27 17 13
2.320263e+00 1.674947e+00 -5.516939e+00 191 166 47
1.226948e+00 1.380243e+00 -5.463513e+00 134 93 110
-5.206543e-01 2.153973e+00 -9.668475e+00 26 22 21
8.268437e-01 7.594520e-01 -5.555286e+00 166 21 27
-7.928708e-02 6.759841e-01 -5.433819e+00 194 33 50
2.422586e+00 6.835763e-01 -5.450237e+00 214 159 61
-6.416729e-02 5.502547e-01 -5.486276e+00 221 210 224
1.501599e+00 5.449176e-01 -5.798572e+00 192 34 55
4.311582e-02 4.365895e-01 -5.517258e+00 228 55 94
4.311582e-02 4.365895e-01 -5.517258e+00 228 55 94
1.153257e+00 1.301514e-01 -5.544586e+00 189 122 139
6.663144e-01 -2.310976e+00 -1.202756e+01 24 23 26
1.107756e+00 -4.171050e+00 -1.435481e+01 50 44 52
2.257516e+00 -3.649508e+00 -1.092234e+01 74 72 95
1.401880e-02 1.110285e+00 -5.741159e+00 163 14 25
8.894356e-01 5.046423e-01 -5.464748e+00 212 196 202
8.894356e-01 5.046423e-01 -5.464748e+00 212 196 202
2.323282e+00 3.485633e-01 -5.600374e+00 217 190 121
-1.023832e-01 2.336611e-01 -5.609011e+00 230 212 228
-1.085096e+00 1.095364e-01 -4.893927e+00 232 158 173
2.178831e+00 -7.307696e-01 -6.242770e+00 208 183 76
2.218598e-01 -2.560530e+00 -1.220560e+01 101 75 60
-1.799803e+00 -2.814467e+00 -1.242940e+01 85 82 101
3.339261e-01 -3.413914e+00 -1.311289e+01 9 9 9
2.493418e+00 -2.754021e+00 -1.009920e+01 100 96 118
-2.896885e+00 3.047532e+00 -1.192659e+01 24 22 27
6.605458e-01 1.048471e+00 -5.587938e+00 128 9 12
1.383761e+00 3.232886e-01 -5.680673e+00 67 9 10
-1.967027e-02 1.949737e-01 -5.700712e+00 199 31 51
1.768674e+00 -1.036501e+00 -6.942596e+00 200 180 66
-1.240404e+00 -2.893626e+00 -1.247380e+01 58 58 69
9.799134e-01 -3.694104e+00 -1.384308e+01 51 49 60
2.497368e+00 -3.367946e+00 -1.024220e+01 72 66 88
3.581504e-02 1.439342e+00 -5.869828e+00 160 15 26
2.393482e+00 5.601574e-01 -5.537031e+00 214 155 47
-3.708495e-02 3.041408e-01 -5.548911e+00 235 234 242
2.036205e+00 -5.904723e-01 -6.303733e+00 218 185 69
1.464676e+00 -4.166629e+00 -1.232709e+01 51 48 65
5.980656e-01 1.444758e+00 -5.814694e+00 146 12 20
5.496790e-01 1.268357e+00 -5.841559e+00 24 8 9
1.357514e+00 -4.001296e+00 -1.320321e+01 56 51 64
1.920460e+00 7.930395e-01 -6.230229e+00 192 132 142
1.045746e-02 5.123797e-01 -5.466987e+00 244 238 244
2.183987e+00 6.601584e-01 -5.956003e+00 217 166 52
9.683829e-01 -2.509798e-01 -5.443430e+00 215 147 158
2.215184e+00 1.895384e+00 -5.786068e+00 181 145 34
1.056103e-01 3.172304e+00 -1.030617e+01 6 5 5
3.529511e-01 3.147447e+00 -1.023154e+01 14 14 13
1.793963e+00 2.070334e+00 -6.845506e+00 113 88 22
2.138068e+00 1.764915e+00 -6.032387e+00 167 116 41
-1.493379e+00 3.098088e+00 -1.096607e+01 79 37 18
2.141626e+00 1.671936e+00 -5.928664e+00 178 125 35
9.141928e-01 1.581529e+00 -5.722468e+00 172 25 39
-2.346056e+00 2.970696e+00 -1.156904e+01 91 86 97
1.218070e-01 1.410088e+00 -5.855333e+00 160 19 28
-7.761823e-01 2.236752e+00 -9.668457e+00 21 17 17
1.289771e-01 1.118438e+00 -5.633670e+00 160 17 26
2.432138e+00 9.905676e-01 -5.408558e+00 203 166 88
5.257595e-01 9.137999e-01 -5.564544e+00 187 125 138
-1.145244e+00 6.681225e-01 -4.654432e+00 237 175 188
2.270256e-01 6.476603e-01 -5.392765e+00 187 157 175
3.859080e-01 5.914256e-01 -5.438274e+00 124 19 39
-4.845777e-01 4.443998e-01 -4.667793e+00 171 121 136
3.468280e-03 5.037660e-01 -5.489159e+00 231 215 227
-8.389120e-01 3.630308e-01 -4.655685e+00 234 192 216
2.397223e+00 9.517411e-02 -5.472446e+00 184 158 94
1.071532e+00 7.368926e-02 -5.514013e+00 135 60 70
1.050902e+00 1.309922e-02 -5.436420e+00 187 127 143
2.213446e+00 -1.154624e-02 -5.975699e+00 167 136 16
2.213446e+00 -1.154624e-02 -5.975699e+00 167 136 16
2.457307e+00 -1.894164e-01 -5.329385e+00 216 77 94
2.457307e+00 -1.894164e-01 -5.329385e+00 216 77 94
7.552913e-01 -1.994272e-01 -5.518269e+00 170 20 32
2.367048e+00 -2.309095e-01 -5.583158e+00 187 154 21
-7.215214e-01 -2.393231e-01 -4.994058e+00 163 189 229
2.192455e+00 -4.143769e-01 -6.027133e+00 168 134 18
2.446919e+00 -4.029455e-01 -5.374655e+00 208 95 124
2.431774e+00 -4.762597e-01 -5.383405e+00 211 98 137
2.423536e+00 -5.223188e-01 -5.393271e+00 210 105 133
2.423536e+00 -5.223188e-01 -5.393271e+00 210 105 133
2.441010e+00 -6.350409e-01 -5.360470e+00 241 146 70
1.896128e+00 -1.874818e+00 -1.178734e+01 66 52 59
-3.092017e-01 -2.174007e+00 -1.246180e+01 110 90 92
2.000036e+00 -1.978440e+00 -1.141611e+01 107 91 101
2.000036e+00 -1.978440e+00 -1.141611e+01 107 91 101
2.011354e+00 -2.183610e+00 -1.133826e+01 72 57 69
2.011354e+00 -2.183610e+00 -1.133826e+01 72 57 69
1.297679e+00 -2.547462e+00 -1.271922e+01 29 33 52
1.077562e+00 -2.947329e+00 -1.405074e+01 70 66 80
1.977115e+00 -2.407412e+00 -1.150225e+01 51 41 50
1.943669e+00 -2.708129e+00 -1.164018e+01 70 59 72
2.449619e+00 -2.398605e+00 -1.012092e+01 111 103 121
2.335886e+00 -2.752570e+00 -1.056662e+01 116 108 122
1.502601e+00 -3.473726e+00 -1.300589e+01 72 66 81
1.645821e+00 -3.352652e+00 -1.259215e+01 52 46 59
1.387371e+00 -3.554979e+00 -1.324026e+01 70 65 77
1.996465e+00 -3.121304e+00 -1.151746e+01 95 90 98
1.839811e+00 -3.313708e+00 -1.199220e+01 51 44 60
1.684546e+00 -3.570073e+00 -1.241966e+01 28 25 35
2.577163e+00 -2.903151e+00 -9.957791e+00 85 80 101
2.290369e+00 -3.215847e+00 -1.074701e+01 113 110 127
1.861450e+00 -3.613034e+00 -1.202037e+01 56 54 70
2.828553e+00 -2.822168e+00 -9.216002e+00 83 67 81
2.561498e+00 -3.097328e+00 -1.002430e+01 115 109 125
2.697708e+00 -2.985786e+00 -9.630084e+00 69 57 68
2.699241e+00 -3.015956e+00 -9.546528e+00 32 30 45
2.829323e+00 -2.921193e+00 -9.194524e+00 115 100 122
2.421954e+00 -3.385293e+00 -1.030941e+01 51 47 63
1.996402e+00 -3.872794e+00 -1.155820e+01 52 41 52
2.414854e+00 -3.498993e+00 -1.045337e+01 56 47 59
2.414854e+00 -3.498993e+00 -1.045337e+01 56 47 59
2.890629e+00 -3.070195e+00 -9.081241e+00 86 75 97
2.957567e+00 -2.996046e+00 -8.836916e+00 94 87 101
2.106064e+00 1.839717e+00 -6.088722e+00 158 107 35
2.093584e+00 1.856968e+00 -6.159120e+00 141 95 23
2.078328e+00 1.802602e+00 -6.069669e+00 140 107 47
6.940370e-01 1.601380e+00 -5.782940e+00 172 24 35
2.124968e+00 1.693588e+00 -6.047268e+00 144 115 63
2.335414e+00 1.359708e+00 -5.498141e+00 195 148 50
9.274367e-02 1.390833e+00 -5.838564e+00 171 24 35
4.441018e-01 1.371246e+00 -5.739283e+00 100 1 1
2.394327e+00 1.330914e+00 -5.420934e+00 202 178 111
2.409465e+00 1.227905e+00 -5.285445e+00 199 156 71
3.348873e-01 1.108549e+00 -5.563139e+00 175 23 37
3.391113e-01 9.893286e-01 -5.517857e+00 192 30 44
2.437334e+00 9.732803e-01 -5.377352e+00 215 181 109
2.313183e+00 8.720910e-01 -5.836765e+00 216 184 101
2.417991e+00 7.206965e-01 -5.428343e+00 219 185 122
2.422711e+00 7.006803e-01 -5.398239e+00 210 165 76
1.041852e+00 5.001092e-01 -5.480111e+00 205 40 72
-7.671650e-01 3.104730e-01 -4.665737e+00 246 184 198
-4.411615e-01 2.662152e-01 -4.626428e+00 224 173 182
2.253650e+00 -6.388190e-02 -5.883627e+00 209 174 47
2.410367e+00 -6.782741e-02 -5.435027e+00 221 190 75
1.107420e+00 -1.899065e-01 -5.318580e+00 198 127 145
7.033691e-01 -2.149940e-01 -5.561224e+00 150 15 21
1.311222e+00 -2.596355e-01 -5.251565e+00 186 128 142
2.174257e+00 -4.564977e-01 -6.082133e+00 226 194 61
2.093488e+00 -6.462586e-01 -6.254118e+00 161 170 128
2.131969e+00 -6.796779e-01 -6.183862e+00 165 138 43
1.683390e+00 -9.451002e-01 -7.111479e+00 199 176 75
2.194625e+00 -1.390940e+00 -5.944582e+00 202 152 45
2.485729e+00 -2.546282e+00 -1.007624e+01 67 55 65
1.346806e+00 -3.652782e+00 -1.348992e+01 42 35 44
1.975245e+00 -3.410323e+00 -1.168588e+01 87 81 96
2.162348e+00 -3.376534e+00 -1.108816e+01 48 44 54
2.532115e+00 -3.158432e+00 -1.006604e+01 66 50 61
2.261833e+00 -3.437966e+00 -1.086126e+01 57 46 60
2.737711e+00 -3.049389e+00 -9.436672e+00 53 44 58
2.641413e+00 -3.207641e+00 -9.754260e+00 117 111 134
2.852630e+00 -3.075913e+00 -9.114356e+00 123 117 137
2.456194e+00 -3.507991e+00 -1.031248e+01 94 91 109
2.588823e+00 -3.461749e+00 -9.932124e+00 105 99 117
2.452743e+00 1.665558e+00 -5.210352e+00 174 153 40
2.452743e+00 1.665558e+00 -5.210352e+00 174 153 40
-1.671115e+00 2.940748e+00 -1.137619e+01 26 14 15
2.227406e+00 1.505177e+00 -5.746074e+00 192 141 45
2.227406e+00 1.505177e+00 -5.746074e+00 192 141 45
2.323370e+00 1.391167e+00 -5.555489e+00 199 150 49
2.423727e+00 1.187811e+00 -5.284613e+00 204 178 120
-7.136302e-01 9.078262e-01 -4.643691e+00 157 124 143
1.226805e+00 9.676618e-01 -5.777102e+00 99 1 7
1.044941e+00 8.004643e-01 -5.613183e+00 161 20 28
-6.225679e-01 6.328488e-01 -4.586805e+00 221 165 178
1.060730e+00 5.918599e-01 -5.458468e+00 101 6 12
2.115203e+00 5.367837e-01 -6.195354e+00 147 94 24
2.420963e+00 3.690569e-01 -5.424533e+00 223 189 125
8.364656e-01 2.138289e-02 -5.656494e+00 223 198 214
1.117561e+00 -2.316545e-01 -5.342234e+00 204 133 146
5.905730e-01 -1.560968e+00 -1.222497e+01 117 88 63
1.763715e+00 -1.758028e+00 -1.209373e+01 76 54 63
2.334038e+00 -3.436625e+00 -1.059562e+01 57 53 69
2.334038e+00 -3.436625e+00 -1.059562e+01 57 53 69
2.167337e+00 1.770301e+00 -5.946236e+00 184 157 43
2.230657e+00 1.581532e+00 -5.825480e+00 191 165 78
-2.263906e+00 3.017890e+00 -1.152650e+01 19 17 20
4.492931e-01 1.476828e+00 -5.750943e+00 122 4 9
7.639113e-02 1.254095e+00 -5.745231e+00 139 13 17
1.124981e+00 1.306246e+00 -6.017714e+00 144 18 24
4.530018e-01 1.091798e+00 -5.561703e+00 169 21 31
-8.561540e-01 6.379666e-01 -4.610576e+00 243 231 243
8.397289e-01 6.910691e-01 -5.553235e+00 197 30 47
1.423725e+00 6.658727e-01 -5.801473e+00 104 9 6
8.985975e-01 -5.538550e-02 -5.586042e+00 51 9 18
2.157586e+00 -2.979966e+00 -1.105365e+01 51 48 60
2.795455e+00 -3.245836e+00 -9.352700e+00 72 50 58
1.066154e+00 7.518622e-01 -5.589681e+00 154 14 25
8.020190e-01 6.037731e-01 -5.518561e+00 183 26 44
8.020190e-01 6.037731e-01 -5.518561e+00 183 26 44
1.437203e+00 5.016596e-01 -5.808749e+00 118 9 11
1.379114e+00 4.604379e-01 -5.791874e+00 159 24 28
1.375198e+00 4.601862e-01 -5.774783e+00 159 24 28
7.977709e-01 1.944890e-03 -5.683888e+00 80 4 9
-2.534929e-01 -1.818837e+00 -1.227363e+01 130 110 117
1.794639e+00 -1.904313e+00 -1.203369e+01 69 55 55
5.201772e-01 -4.636359e+00 -1.382252e+01 4 4 4
1.421647e-01 9.922001e-01 -5.550475e+00 169 18 30
-1.090098e-02 7.348175e-01 -5.427427e+00 91 1 7
1.661145e+00 -1.953979e+00 -1.222389e+01 115 90 66
2.413006e+00 1.305413e+00 -5.279171e+00 199 175 113
3.854880e-01 4.816055e-01 -5.399949e+00 72 3 2
7.663837e-01 8.687526e-02 -5.663054e+00 238 231 239
-7.212582e-01 5.544723e-01 -4.607246e+00 161 190 228
-8.853786e-01 -6.647892e-02 -4.920881e+00 242 188 200
7.026617e-01 2.801221e-01 -5.561878e+00 203 29 53
7.026617e-01 2.801221e-01 -5.561878e+00 203 29 53
2.304203e+00 -1.578398e+00 -5.687662e+00 215 38 66
4.899490e-01 3.138467e+00 -1.024558e+01 9 9 9
7.281212e-02 3.141323e+00 -1.049728e+01 8 8 8
1.995176e+00 2.220359e+00 -6.410231e+00 197 171 61
-6.436792e-02 2.251159e+00 -9.685936e+00 27 22 19
2.166795e+00 1.654912e+00 -5.971151e+00 218 182 97
8.395207e-01 1.530136e+00 -5.817970e+00 214 35 54
-2.057345e+00 2.075986e+00 -1.177582e+01 71 57 57
-2.756053e+00 2.165451e+00 -1.327565e+01 94 79 89
-2.665840e+00 1.868658e+00 -1.274725e+01 90 74 84
-2.780749e+00 1.831875e+00 -1.299340e+01 54 50 55
-9.691464e-01 8.343154e-01 -4.646161e+00 242 187 200
-9.918716e-01 7.945442e-01 -4.633547e+00 249 196 203
-1.007277e+00 7.395188e-01 -4.617983e+00 225 158 166
-8.905562e-01 7.341428e-01 -4.588864e+00 254 194 202
-7.086682e-01 7.370099e-01 -4.580953e+00 218 164 174
-7.108019e-01 6.847691e-01 -4.571235e+00 241 173 186
-6.278796e-01 6.789076e-01 -4.581040e+00 199 130 142
-9.973025e-01 6.266323e-01 -4.592195e+00 253 194 203
-9.135212e-01 6.158878e-01 -4.583811e+00 248 202 217
3.534883e-01 6.241973e-01 -5.377576e+00 155 106 126
2.388499e+00 6.651595e-01 -5.487933e+00 247 210 120
-9.379469e-01 4.821479e-01 -4.616484e+00 211 190 228
-5.688656e-01 5.006933e-01 -4.616788e+00 255 216 225
-6.248623e-01 3.871097e-01 -4.642867e+00 203 130 145
2.250211e+00 4.313729e-01 -5.484887e+00 242 192 94
-6.724407e-01 3.554643e-01 -4.630251e+00 218 145 162
-8.262269e-01 3.208575e-01 -4.653561e+00 248 196 208
-8.479384e-01 3.142631e-01 -4.665848e+00 229 165 184
-9.121168e-01 2.749548e-01 -4.705947e+00 253 203 211
-5.375526e-01 3.024266e-01 -4.582223e+00 248 202 215
-8.706078e-01 2.198420e-01 -4.692368e+00 253 193 205
-7.519222e-01 1.891526e-01 -4.601387e+00 255 203 216
-1.092498e+00 1.297204e-01 -4.908933e+00 255 201 209
5.667579e-01 9.446753e-02 -5.768650e+00 249 55 98
-8.846278e-01 1.469637e-01 -4.668454e+00 255 201 212
-4.279685e-01 1.627957e-01 -4.670790e+00 250 200 209
-8.380526e-01 1.067942e-01 -4.652016e+00 236 173 188
-4.293698e-01 9.516189e-02 -4.707036e+00 243 205 211
9.532983e-01 2.955910e-02 -5.601974e+00 203 153 169
-7.938286e-01 6.519163e-02 -4.664940e+00 251 208 218
-9.639094e-01 -5.295491e-02 -4.959631e+00 255 219 224
5.166612e-01 -1.810352e-01 -5.989090e+00 166 28 34
1.211003e+00 -7.576225e-02 -5.329934e+00 238 174 181
-8.778698e-01 -1.454779e-01 -5.004086e+00 118 141 191
-8.701821e-01 -1.908349e-01 -5.049477e+00 155 204 236
1.154898e+00 -2.948889e-01 -5.361275e+00 164 92 104
-8.304753e-01 -3.498103e-01 -5.235045e+00 237 189 200
1.050652e+00 -3.009404e-01 -5.348418e+00 213 141 155
2.189206e+00 -4.545696e-01 -6.043107e+00 206 172 45
1.906402e+00 -2.075479e+00 -1.167195e+01 74 49 49
2.100623e+00 -8.080552e-01 -6.218410e+00 196 170 45
2.100623e+00 -8.080552e-01 -6.218410e+00 196 170 45
2.140607e+00 -8.250799e-01 -6.163051e+00 200 172 44
2.293184e+00 -7.634232e-01 -5.776368e+00 239 211 71
2.005267e+00 -2.376987e+00 -1.139241e+01 118 101 112
2.309198e+00 -2.261814e+00 -1.062256e+01 141 131 142
1.658220e+00 -2.838760e+00 -1.254058e+01 74 61 72
2.220120e+00 -2.292220e+00 -1.068764e+01 97 81 93
1.229826e+00 -3.197083e+00 -1.345107e+01 74 63 73
1.349269e+00 -3.331314e+00 -1.334852e+01 71 60 76
1.982637e+00 -2.835895e+00 -1.153140e+01 90 83 99
1.982637e+00 -2.835895e+00 -1.153140e+01 90 83 99
2.014940e+00 -2.808704e+00 -1.139842e+01 132 121 135
1.269783e+00 -3.613434e+00 -1.352085e+01 104 94 108
1.269783e+00 -3.613434e+00 -1.352085e+01 104 94 108
2.314537e+00 -2.716327e+00 -1.060083e+01 80 68 82
2.463519e+00 -2.594738e+00 -1.013840e+01 128 115 128
2.277998e+00 -2.937551e+00 -1.070162e+01 76 68 83
1.826580e+00 -3.424960e+00 -1.202388e+01 78 64 77
2.243810e+00 -3.180392e+00 -1.082630e+01 116 111 129
2.193535e+00 -1.426853e+00 -5.961979e+00 231 180 51
2.547377e+00 -2.947404e+00 -9.977772e+00 140 131 151
1.757271e+00 -4.198315e+00 -1.231889e+01 106 103 119
2.842281e+00 -3.093209e+00 -9.210968e+00 105 97 120
-1.143246e+00 3.100609e+00 -1.088333e+01 80 33 9
-3.675854e+00 3.092775e+00 -1.235584e+01 124 114 131
6.835373e-01 2.865827e+00 -1.028632e+01 13 12 11
2.209968e+00 1.919410e+00 -5.734352e+00 216 173 52
2.209968e+00 1.919410e+00 -5.734352e+00 216 173 52
-6.796447e-01 2.147742e+00 -9.589095e+00 31 28 21
2.184478e+00 1.691052e+00 -5.879599e+00 223 187 110
2.362672e+00 1.586726e+00 -5.446118e+00 226 177 54
2.191390e+00 1.584014e+00 -5.906205e+00 217 170 66
2.205725e+00 1.590385e+00 -5.937437e+00 217 170 66
2.343345e+00 1.539986e+00 -5.514668e+00 223 180 77
2.483363e-02 9.205766e-01 -5.595711e+00 132 3 7
-1.107920e+00 6.719786e-01 -4.650537e+00 250 191 198
1.212640e+00 6.824949e-01 -5.597923e+00 216 40 62
1.262573e+00 6.851147e-01 -5.592979e+00 209 40 57
-6.520701e-01 5.867807e-01 -4.588243e+00 254 206 219
4.145606e-01 5.607222e-01 -5.376653e+00 249 53 103
-6.303653e-01 5.008079e-01 -4.601982e+00 255 208 220
-6.656497e-01 4.688475e-01 -4.573489e+00 252 200 208
2.144209e+00 4.566023e-01 -6.069606e+00 229 187 62
-7.193978e-01 3.319178e-01 -4.649214e+00 255 207 215
-8.475932e-01 2.920634e-01 -4.662539e+00 255 213 219
-8.854851e-01 2.784087e-01 -4.680761e+00 241 173 188
-9.283847e-01 2.528663e-01 -4.706878e+00 254 201 212
-1.080209e+00 2.071991e-01 -4.866908e+00 255 220 228
-7.786258e-01 2.170237e-01 -4.631524e+00 244 188 197
-1.192468e+00 1.004365e-01 -4.916659e+00 251 199 212
1.699312e+00 1.725137e-01 -5.281610e+00 198 148 84
-3.905351e-01 9.177650e-02 -4.723017e+00 252 212 219
4.561399e-01 -1.532411e-01 -5.975363e+00 223 38 59
4.885327e-01 -1.977923e-01 -5.933054e+00 211 37 60
1.236743e+00 -8.943863e-02 -5.335354e+00 156 83 90
6.596665e-01 -2.282845e-01 -5.591951e+00 171 20 27
2.470735e+00 -3.217452e-01 -5.328029e+00 252 217 234
2.161011e+00 -5.432524e-01 -6.128221e+00 246 218 83
2.080112e+00 -7.882148e-01 -6.314594e+00 179 192 148
2.070897e+00 -7.841917e-01 -6.294172e+00 179 192 148
1.898102e+00 -2.206932e+00 -1.175050e+01 82 63 67
2.260372e+00 -2.215259e+00 -1.071330e+01 152 150 170
2.200823e+00 -3.433310e+00 -1.098284e+01 85 72 86
2.929305e+00 -3.005092e+00 -8.900233e+00 83 71 88
-3.818936e-01 2.296713e+00 -9.691819e+00 33 24 19
-1.268495e+00 2.446545e+00 -1.110875e+01 56 34 31
-1.915647e-02 2.302244e+00 -9.737498e+00 42 29 23
2.217197e+00 1.865429e+00 -6.196330e+00 209 157 57
8.099234e-01 1.657915e+00 -5.727516e+00 171 22 33
2.212922e+00 1.747349e+00 -5.840855e+00 222 192 117
-1.706275e+00 2.084733e+00 -1.142402e+01 110 86 91
-2.497144e+00 2.083581e+00 -1.246808e+01 92 77 84
2.321907e+00 1.540439e+00 -5.541088e+00 229 203 130
2.295433e+00 1.513998e+00 -5.554822e+00 225 174 64
5.114264e-01 1.356816e+00 -5.797130e+00 182 29 36
-2.691350e+00 1.723984e+00 -1.268769e+01 88 72 81
1.536439e-01 1.196714e+00 -5.638129e+00 115 4 7
1.536439e-01 1.196714e+00 -5.638129e+00 115 4 7
7.591579e-02 9.086012e-01 -5.595589e+00 215 36 59
-8.223341e-01 7.826325e-01 -4.593183e+00 185 120 134
-1.189680e-01 7.565962e-01 -5.443473e+00 121 6 8
-9.423574e-01 6.610732e-01 -4.576323e+00 253 207 214
2.094070e+00 6.031377e-01 -6.213639e+00 208 171 108
-4.852422e-01 4.149783e-01 -4.632464e+00 149 91 108
2.047461e+00 2.787614e-01 -6.372796e+00 89 52 3
-9.497556e-01 2.749093e-01 -4.712865e+00 233 171 184
-1.106683e+00 1.483993e-01 -4.889011e+00 255 206 215
3.905027e-01 1.290485e-01 -5.649775e+00 236 58 108
-6.547772e-01 1.847968e-01 -4.574598e+00 254 216 224
9.060698e-01 -1.824150e-02 -5.632646e+00 199 158 169
-1.067397e+00 -1.847621e-02 -4.963047e+00 252 231 231
4.128872e-01 -3.021471e-01 -6.000648e+00 242 53 90
2.135859e+00 -5.266272e-01 -6.178879e+00 242 217 83
2.146099e+00 -5.864015e-01 -6.104922e+00 243 216 78
2.706339e+00 -2.890768e+00 -9.412967e+00 150 139 151
2.739806e+00 -2.925480e+00 -9.508919e+00 150 139 151
2.077260e+00 -3.716298e+00 -1.134556e+01 125 111 126
2.598353e+00 -3.322571e+00 -1.002043e+01 128 117 139
2.205719e-01 2.541035e+00 -9.838714e+00 23 19 18
5.999970e-01 1.619092e+00 -5.801123e+00 94 6 3
2.233414e+00 1.730369e+00 -5.760847e+00 221 192 94
8.553587e-01 1.595450e+00 -5.708585e+00 209 36 63
2.338283e+00 1.598759e+00 -5.483324e+00 231 171 56
2.030922e-01 1.348195e+00 -5.726689e+00 176 22 28
-9.613042e-01 7.133642e-01 -4.563819e+00 250 194 206
-5.868516e-01 6.938955e-01 -4.620681e+00 252 193 204
-1.071695e+00 6.186831e-01 -4.630971e+00 246 186 197
-9.990370e-01 5.625993e-01 -4.591744e+00 255 185 198
-8.820821e-01 5.603339e-01 -4.577004e+00 221 236 249
-5.827630e-01 5.732533e-01 -4.605334e+00 249 200 213
-9.683853e-01 5.371649e-01 -4.576018e+00 253 214 221
-1.141318e+00 4.821108e-01 -4.701393e+00 255 212 217
-6.859549e-01 4.855871e-01 -4.614660e+00 233 187 217
-9.758761e-01 4.427459e-01 -4.702582e+00 251 211 215
2.409414e+00 5.017304e-01 -5.423749e+00 247 190 62
-1.079405e+00 2.532267e-01 -4.791371e+00 253 191 202
8.174047e-01 1.388570e-01 -5.686992e+00 183 39 60
1.188891e+00 -2.634571e-01 -5.362484e+00 242 184 200
7.610285e-01 -2.208524e+00 -1.197974e+01 151 126 124
1.642671e+00 -3.860900e+00 -1.255072e+01 101 96 113
2.614389e+00 -1.502736e+00 -5.575349e+00 197 169 145
1.666686e-01 2.737245e+00 -1.007922e+01 37 28 26
6.099884e-01 1.701810e+00 -5.869490e+00 190 33 44
6.099884e-01 1.701810e+00 -5.869490e+00 190 33 44
-1.817280e+00 2.478590e+00 -1.252327e+01 76 59 65
2.058971e-01 1.183602e+00 -5.602223e+00 128 9 12
2.058971e-01 1.183602e+00 -5.602223e+00 128 9 12
-2.795789e+00 9.897046e-01 -1.256692e+01 117 95 105
9.075146e-01 8.349021e-01 -5.611601e+00 200 33 51
9.671502e-01 4.620577e-01 -5.514487e+00 182 33 66
-7.616432e-01 2.614495e-01 -4.622306e+00 226 160 169
-9.784003e-01 -3.527440e-02 -4.920940e+00 252 217 221
-4.103588e-01 -1.167859e-01 -4.987778e+00 250 209 218
7.376604e-01 -4.324062e+00 -1.383135e+01 14 14 14
-1.283862e-02 2.442414e+00 -9.875953e+00 13 12 11
7.487536e-01 1.550521e+00 -5.780040e+00 223 41 66
-2.671627e+00 2.005403e+00 -1.294677e+01 95 79 89
2.694022e-01 7.944190e-01 -5.527855e+00 231 42 70
1.319088e+00 1.308624e-01 -5.468090e+00 133 25 23
2.324850e+00 9.060292e-02 -5.684094e+00 239 217 139
2.267206e+00 -1.075188e+00 -5.854331e+00 231 223 104
-4.350973e+00 -2.452458e-01 -1.707617e+01 141 133 148
-1.083785e+00 3.775660e-01 -4.782538e+00 250 208 217
1.329763e+00 3.963898e-01 -5.830693e+00 204 40 55
-3.191769e+00 3.342850e+00 -1.763887e+01 51 42 44
-2.379489e+00 1.644910e+00 -1.211093e+01 123 105 114
2.713787e-01 7.108561e-01 -5.440728e+00 71 3 8
-3.945678e-01 -2.557736e-01 -5.257162e+00 159 133 138
1.576551e+00 3.781891e-01 -5.926827e+00 205 40 50
4.943987e-01 1.056923e+00 -5.578758e+00 142 28 53
-1.091395e+00 7.671779e-01 -4.646715e+00 223 169 184
-7.238755e-01 7.127995e-01 -4.574079e+00 224 164 179
-7.238755e-01 7.127995e-01 -4.574079e+00 224 164 179
6.909093e-02 8.416931e-01 -5.560266e+00 175 25 40
-5.680004e-01 6.555168e-01 -4.611144e+00 236 170 182
2.433204e+00 7.283593e-01 -5.361740e+00 218 186 116
2.032917e+00 -3.309484e+00 -1.144634e+01 55 45 62
2.860867e-01 9.177464e-01 -5.534864e+00 170 20 31
1.952802e+00 -3.921059e+00 -1.173039e+01 71 67 87
4.862936e-01 3.034882e+00 -1.039881e+01 13 13 11
-6.945784e-02 2.253342e+00 -9.717814e+00 27 22 19
-5.916387e-01 2.150726e+00 -9.723735e+00 35 31 26
-1.421513e+00 2.251695e+00 -1.120063e+01 77 51 52
7.331078e-01 1.598738e+00 -5.778054e+00 202 33 55
-2.207796e+00 2.310005e+00 -1.268507e+01 79 64 69
-2.248376e+00 2.201988e+00 -1.261012e+01 79 65 72
-1.269568e-01 1.933426e+00 -9.633204e+00 27 25 20
-1.991572e+00 1.806543e+00 -1.150448e+01 98 77 87
1.235507e+00 1.278683e+00 -5.280086e+00 162 116 127
2.345853e+00 1.357221e+00 -5.501450e+00 228 179 57
2.345853e+00 1.357221e+00 -5.501450e+00 228 179 57
4.479099e-01 1.043812e+00 -5.573673e+00 221 200 223
4.060833e-01 1.029768e+00 -5.568443e+00 238 211 231
5.803500e-01 1.042375e+00 -5.584616e+00 162 28 49
4.552189e-01 9.011250e-01 -5.557084e+00 229 156 176
5.425929e-01 8.418268e-01 -5.550969e+00 223 192 208
5.425929e-01 8.418268e-01 -5.550969e+00 223 192 208
-9.957908e-01 6.586575e-01 -4.576352e+00 219 151 163
-6.759458e-01 6.533960e-01 -4.569186e+00 246 186 195
-9.506542e-01 4.601007e-01 -4.614194e+00 246 201 220
-5.798983e-01 3.325493e-01 -4.584033e+00 248 195 208
-8.370341e-01 1.072620e-01 -4.650241e+00 236 173 188
7.860097e-01 -1.803214e-01 -5.467208e+00 200 36 61
7.860097e-01 -1.803214e-01 -5.467208e+00 200 36 61
7.728075e-01 -2.097707e-01 -5.468445e+00 223 44 69
5.796272e-01 -2.702638e-01 -5.657320e+00 194 32 47
2.566554e+00 -3.338689e+00 -1.002334e+01 123 119 149
1.584298e+00 2.340421e+00 -7.381913e+00 114 95 82
1.584298e+00 2.340421e+00 -7.381913e+00 114 95 82
1.813710e+00 2.114725e+00 -6.777692e+00 102 69 19
1.827435e+00 1.981660e+00 -6.888601e+00 167 125 51
7.437208e-01 1.622346e+00 -5.784214e+00 168 15 27
-2.397705e+00 2.227341e+00 -1.288112e+01 84 72 76
2.330333e+00 1.581885e+00 -5.534880e+00 229 198 126
-5.629035e-01 1.849722e+00 -9.838720e+00 38 32 32
-5.986840e-01 1.680218e+00 -9.961832e+00 15 12 16
4.660399e-01 8.464209e-01 -5.562148e+00 222 198 216
2.376492e+00 6.929343e-01 -5.475298e+00 243 190 79
2.135577e+00 5.701489e-01 -6.163085e+00 217 185 116
2.216307e+00 4.270426e-01 -6.049812e+00 242 203 65
-1.087189e+00 1.086898e-01 -4.896308e+00 251 183 194
1.911795e+00 -3.913866e+00 -1.184223e+01 69 56 66
1.619678e+00 -4.561021e+00 -1.281105e+01 92 88 103
1.291462e+00 2.436440e+00 -7.909127e+00 19 15 16
2.269374e+00 1.801748e+00 -5.690400e+00 223 195 54
3.560753e-01 1.470862e+00 -5.775667e+00 171 22 28
2.210045e+00 1.563797e+00 -5.869162e+00 219 169 54
2.210045e+00 1.563797e+00 -5.869162e+00 219 169 54
5.314881e-01 1.405990e+00 -5.813802e+00 166 15 23
-3.128105e-01 1.682076e+00 -9.430106e+00 6 6 4
-6.326417e-01 1.717879e+00 -9.950853e+00 88 78 87
1.491566e+00 1.236141e+00 -5.284517e+00 185 130 132
3.406036e-01 9.880655e-01 -5.543528e+00 228 43 77
8.417819e-01 6.892819e-01 -5.569585e+00 236 46 81
2.978129e-02 5.951390e-01 -5.388771e+00 250 236 245
2.280141e+00 4.383174e-01 -5.807414e+00 244 188 79
1.677696e+00 -4.454951e+00 -1.263386e+01 65 58 69
-4.937869e-01 2.051576e+00 -9.753233e+00 21 21 21
-4.937869e-01 2.051576e+00 -9.753233e+00 21 21 21
-3.777995e-01 1.941076e+00 -9.780247e+00 49 44 44
7.036584e-01 1.381418e+00 -5.935884e+00 68 1 0
5.012681e-01 1.165583e+00 -5.612263e+00 175 30 40
-7.791341e-02 9.258044e-01 -5.630398e+00 94 3 3
1.292231e-02 8.547588e-01 -5.564468e+00 191 31 45
1.458097e-01 5.613243e-01 -5.381122e+00 105 39 62
-5.172464e-01 4.001294e-01 -4.612780e+00 232 183 194
2.448015e+00 -5.745165e-01 -5.355862e+00 255 63 99
2.448015e+00 -5.745165e-01 -5.355862e+00 255 63 99
-7.039408e-01 2.192559e+00 -9.690814e+00 32 27 24
6.149894e-01 1.161236e+00 -5.670702e+00 91 1 0
-1.104426e-02 7.451486e-01 -5.470159e+00 107 3 7
1.889203e+00 -3.926299e+00 -1.189826e+01 72 59 70
2.316158e+00 9.229049e-02 -5.668404e+00 239 217 139
7.634670e-01 1.125099e+00 -5.688539e+00 178 24 37
1.604306e+00 2.807525e+00 -7.266879e+00 141 136 152
1.901344e-01 8.404234e-01 -5.488808e+00 245 48 86
1.442857e-01 8.756197e-01 -5.535371e+00 239 45 80
2.229835e+00 1.902915e+00 -5.752896e+00 178 145 47
9.870103e-01 1.564897e+00 -5.697587e+00 187 118 131
1.266361e+00 1.405643e+00 -5.392118e+00 109 71 84
-2.452175e+00 2.190614e+00 -1.281069e+01 35 28 35
-9.697283e-01 8.535445e-01 -4.640464e+00 166 115 134
1.622549e-01 1.068514e+00 -5.566335e+00 134 8 14
-1.029626e+00 7.894517e-01 -4.631400e+00 182 125 142
5.691365e-01 9.600186e-01 -5.570769e+00 199 126 145
-1.849547e+00 4.886420e-01 -1.156392e+01 83 66 71
-2.270595e+00 3.644447e-01 -1.218588e+01 71 59 63
-6.292898e-01 3.655921e-01 -4.626598e+00 195 136 151
-5.758412e-01 2.726636e-01 -4.577212e+00 225 168 177
2.451873e+00 3.876722e-01 -5.342052e+00 208 155 67
2.513423e+00 1.991502e-01 -5.138359e+00 241 160 171
2.513423e+00 1.991502e-01 -5.138359e+00 241 160 171
2.511204e+00 1.559353e-01 -5.154957e+00 228 169 187
