ply
format ascii 1.0
element face 0
property list uchar int vertex_indices
element vertex 934
property float x
property float y
property float z
property uchar diffuse_red
property uchar diffuse_green
property uchar diffuse_blue
end_header
2.384110e+00 -3.537631e+00 -1.054801e+01 99 95 113
2.683030e+00 -3.211057e+00 -9.665888e+00 112 106 124
2.166837e+00 -3.884240e+00 -1.119665e+01 50 45 58
2.046774e+00 1.865205e+00 -6.185124e+00 116 75 22
2.169234e+00 1.692121e+00 -5.882944e+00 191 165 111
5.730838e-01 1.348371e+00 -5.816366e+00 59 0 0
2.287112e+00 1.477775e+00 -5.547528e+00 200 170 99
2.312173e+00 1.452626e+00 -5.498824e+00 198 171 90
4.626173e-01 1.028001e+00 -5.537863e+00 156 20 54
-9.093788e-01 6.947274e-01 -4.564283e+00 204 140 157
7.015465e-02 8.946320e-01 -5.555798e+00 102 2 5
4.091507e-01 9.233550e-01 -5.525184e+00 197 134 154
-8.381279e-01 6.523545e-01 -4.588414e+00 232 173 197
-7.546331e-01 6.543631e-01 -4.597053e+00 241 217 230
-5.919126e-01 6.264652e-01 -4.576710e+00 217 156 171
1.878340e-01 6.290955e-01 -5.364792e+00 229 220 229
1.608951e-01 6.110211e-01 -5.363417e+00 233 219 230
2.371693e+00 6.679330e-01 -5.453029e+00 215 158 52
-4.238309e-01 3.600169e-01 -4.619444e+00 221 166 176
-7.743413e-01 2.812994e-01 -4.672862e+00 245 182 191
-3.775610e-01 2.949598e-01 -4.634120e+00 157 99 112
6.061209e-01 2.806058e-01 -5.636145e+00 212 37 58
-3.716145e-01 1.475241e-01 -4.676721e+00 157 101 113
-4.094608e-01 7.425195e-02 -4.723372e+00 219 170 182
-4.180463e-01 3.394949e-02 -4.752875e+00 226 178 187
9.518546e-01 6.490750e-02 -5.582108e+00 171 124 141
1.150299e+00 -1.730556e-01 -5.281048e+00 206 134 146
4.756054e-01 -2.975883e-01 -5.870617e+00 188 33 47
6.426632e-01 -3.451844e-01 -5.538653e+00 204 37 56
6.426632e-01 -3.451844e-01 -5.538653e+00 204 37 56
2.410530e+00 -3.272111e-01 -5.313006e+00 232 190 201
2.407925e+00 -3.773306e-01 -5.341049e+00 230 174 188
2.395004e+00 -4.542445e-01 -5.351030e+00 233 198 214
-2.874065e-01 -2.046406e+00 -1.251935e+01 121 96 106
2.383219e+00 -4.886054e-01 -5.415985e+00 235 186 196
1.750108e+00 -2.126386e+00 -1.225260e+01 62 47 48
2.048126e+00 -2.350460e+00 -1.136056e+01 63 47 58
2.257963e+00 -2.199264e+00 -1.072344e+01 119 118 135
2.215428e+00 -2.323920e+00 -1.089833e+01 124 120 135
2.215428e+00 -2.323920e+00 -1.089833e+01 124 120 135
1.849172e+00 -2.855897e+00 -1.203410e+01 56 45 55
1.660657e+00 -3.059974e+00 -1.261585e+01 54 48 60
1.557771e+00 -3.252114e+00 -1.310500e+01 81 74 84
1.439945e+00 -3.348244e+00 -1.334989e+01 47 38 45
1.183943e+00 -3.607928e+00 -1.410196e+01 57 53 64
2.344258e+00 -2.506142e+00 -1.049675e+01 64 53 67
2.491118e+00 -2.530860e+00 -1.009742e+01 67 55 65
1.737942e+00 -3.390181e+00 -1.250293e+01 96 91 106
2.337769e+00 -2.808258e+00 -1.061869e+01 57 46 52
1.307743e+00 -3.844805e+00 -1.368543e+01 44 38 49
2.235540e+00 -2.964155e+00 -1.092061e+01 108 100 118
2.033520e+00 -3.207687e+00 -1.145987e+01 91 78 87
1.634793e+00 -3.692549e+00 -1.274083e+01 42 35 47
2.477414e+00 -2.839343e+00 -1.014414e+01 103 99 121
1.601337e+00 -3.859247e+00 -1.290821e+01 36 26 32
2.441700e+00 -2.996210e+00 -1.032366e+01 101 92 109
2.075371e+00 -3.411082e+00 -1.141280e+01 39 35 50
2.142998e+00 -3.513061e+00 -1.120737e+01 53 51 64
2.272514e+00 -3.444863e+00 -1.090981e+01 57 46 60
2.245957e+00 -3.577985e+00 -1.102939e+01 81 79 96
2.447177e+00 -3.338028e+00 -1.040919e+01 101 97 119
2.740357e+00 -3.026142e+00 -9.442434e+00 53 44 58
2.772924e+00 -3.057025e+00 -9.393377e+00 78 67 82
2.623715e+00 -3.254340e+00 -9.871289e+00 61 53 71
2.866130e+00 -3.058708e+00 -9.143077e+00 123 117 137
7.442408e-01 1.616511e+00 -5.760055e+00 131 4 10
7.061968e-01 1.524916e+00 -5.797261e+00 113 5 7
9.689061e-01 1.539048e+00 -5.694067e+00 142 22 33
4.144069e-01 1.402762e+00 -5.718411e+00 99 2 3
6.016833e-01 1.435495e+00 -5.785719e+00 145 11 18
2.162167e+00 1.620030e+00 -5.886473e+00 191 163 109
2.162167e+00 1.620030e+00 -5.886473e+00 191 163 109
2.136022e+00 1.611241e+00 -5.936047e+00 181 130 43
2.267037e+00 1.575793e+00 -5.720199e+00 194 143 46
1.576500e-01 1.237024e+00 -5.641005e+00 149 14 20
2.681705e-01 1.219749e+00 -5.610794e+00 160 21 22
1.641915e+00 1.354230e+00 -5.438151e+00 69 30 30
1.641915e+00 1.354230e+00 -5.438151e+00 69 30 30
1.497458e+00 1.309187e+00 -5.357669e+00 94 50 54
-7.991431e-01 7.330443e-01 -4.564394e+00 175 107 129
-7.991431e-01 7.330443e-01 -4.564394e+00 175 107 129
-7.583943e-01 7.361160e-01 -4.564902e+00 178 107 123
-7.614349e-01 7.116251e-01 -4.560054e+00 228 165 173
-6.409312e-01 7.186140e-01 -4.576425e+00 225 172 181
1.268521e+00 1.079201e+00 -5.832882e+00 130 9 14
1.268521e+00 1.079201e+00 -5.832882e+00 130 9 14
-9.882003e-03 8.410801e-01 -5.480916e+00 117 8 8
-2.004658e-03 8.032581e-01 -5.477181e+00 163 21 33
5.657305e-02 7.935593e-01 -5.491485e+00 173 25 39
-5.246959e-01 6.301497e-01 -4.595284e+00 170 104 125
6.934431e-01 7.074437e-01 -5.498001e+00 193 28 44
-8.631842e-01 4.622367e-01 -4.608336e+00 168 156 199
-7.491670e-01 4.451306e-01 -4.612051e+00 165 217 254
8.919013e-01 6.423143e-01 -5.543567e+00 155 20 29
-9.097530e-01 4.029435e-01 -4.627491e+00 236 165 179
-4.059748e-01 3.786530e-01 -4.621139e+00 155 95 108
-3.610183e-01 3.339248e-01 -4.636405e+00 210 149 164
2.070237e+00 4.829959e-01 -6.196774e+00 124 82 37
-3.459604e-01 2.325809e-01 -4.655229e+00 224 163 173
2.382508e+00 4.532964e-01 -5.463797e+00 217 185 59
2.316738e+00 4.287891e-01 -5.528562e+00 217 189 124
6.875254e-01 8.825388e-02 -5.757509e+00 200 35 51
-7.329178e-01 -1.035429e-01 -5.013390e+00 251 253 253
1.130381e+00 -1.357237e-01 -5.300216e+00 206 142 144
2.144363e+00 -3.810954e-01 -6.037325e+00 229 197 56
2.144363e+00 -3.810954e-01 -6.037325e+00 229 197 56
1.848663e+00 -7.040645e-01 -6.364157e+00 193 138 145
2.386181e+00 -4.941303e-01 -5.364022e+00 221 198 215
2.387046e+00 -4.941433e-01 -5.364887e+00 221 198 215
2.060090e+00 -7.596819e-01 -6.232083e+00 217 191 83
2.094806e+00 -7.465179e-01 -6.153441e+00 214 191 78
2.073007e+00 -8.680753e-01 -6.199701e+00 212 189 69
1.930847e+00 -2.301791e+00 -1.168188e+01 51 42 44
2.006113e+00 -2.326718e+00 -1.153401e+01 62 46 53
-1.211712e+00 -2.796422e+00 -1.268132e+01 74 42 54
2.103378e+00 -2.305169e+00 -1.103340e+01 65 54 68
1.171160e+00 -3.387225e+00 -1.401277e+01 40 33 43
1.238499e+00 -3.424925e+00 -1.366486e+01 39 34 40
1.543574e+00 -3.521366e+00 -1.280231e+01 47 42 54
2.092490e+00 -3.158409e+00 -1.141965e+01 55 49 56
2.092490e+00 -3.158409e+00 -1.141965e+01 55 49 56
2.001734e+00 -3.249245e+00 -1.161216e+01 56 47 53
1.391552e+00 -4.055035e+00 -1.357474e+01 43 37 42
2.642825e+00 -2.776304e+00 -9.727629e+00 60 46 62
2.481072e+00 -3.231742e+00 -1.031590e+01 97 90 106
1.749093e+00 -4.368785e+00 -1.264798e+01 41 35 45
5.647378e-01 1.597681e+00 -5.833506e+00 155 16 33
2.196982e+00 1.580119e+00 -5.804444e+00 191 165 78
2.110065e-01 1.236076e+00 -5.625374e+00 157 17 29
1.530220e+00 1.238360e+00 -5.296158e+00 69 31 28
1.530220e+00 1.238360e+00 -5.296158e+00 69 31 28
-9.065198e-01 7.609205e-01 -4.580118e+00 133 74 96
-8.058701e-01 7.617870e-01 -4.570734e+00 226 167 179
-7.763024e-01 7.637440e-01 -4.567978e+00 224 166 176
-8.178850e-01 7.057680e-01 -4.577080e+00 226 164 177
-7.746183e-01 6.855911e-01 -4.591622e+00 226 155 169
-6.044249e-01 6.871512e-01 -4.572339e+00 233 177 193
-2.330842e-02 6.148955e-01 -5.392302e+00 108 10 22
9.041964e-01 6.111320e-01 -5.488921e+00 104 12 15
2.133261e+00 5.955458e-01 -6.142775e+00 194 162 102
1.424139e+00 4.519075e-01 -5.795017e+00 120 11 13
6.644754e-01 2.309713e-01 -5.623116e+00 114 5 13
9.478746e-01 2.522489e-01 -5.723178e+00 199 31 48
7.245821e-01 2.033885e-01 -5.642499e+00 110 14 20
1.092497e+00 1.424023e-01 -5.534251e+00 171 100 114
1.207727e+00 1.364119e-01 -5.485245e+00 94 36 40
9.453745e-01 2.889532e-02 -5.581138e+00 66 13 21
9.531232e-01 2.489624e-02 -5.469784e+00 170 108 123
5.651077e-01 -2.561183e-01 -5.651202e+00 188 32 46
1.098488e+00 -2.277658e-01 -5.325546e+00 220 155 163
1.998889e+00 -2.125673e+00 -1.143732e+01 54 41 42
1.487434e+00 -2.568591e+00 -1.235150e+01 110 83 65
1.533415e+00 -2.967942e+00 -1.296193e+01 60 47 59
1.726047e+00 -3.696606e+00 -1.253772e+01 10 10 12
1.719189e+00 -3.682896e+00 -1.249612e+01 10 10 12
2.156593e+00 -3.239816e+00 -1.121348e+01 52 41 50
7.253393e-01 1.657298e+00 -5.748828e+00 176 20 40
2.300343e+00 1.495856e+00 -5.509540e+00 199 144 53
2.300343e+00 1.495856e+00 -5.509540e+00 199 144 53
9.004172e-01 1.101694e+00 -5.666814e+00 103 3 5
-7.758530e-01 5.990566e-01 -4.498419e+00 179 225 255
-8.398573e-01 4.887387e-01 -4.620433e+00 181 230 255
-4.844337e-01 5.065519e-01 -4.662375e+00 235 181 195
1.724399e-01 5.844549e-01 -5.382392e+00 82 11 26
1.024676e+00 6.580243e-01 -5.489468e+00 44 10 8
-3.692836e-01 3.902808e-01 -4.614404e+00 209 148 163
-3.911040e-01 3.454101e-01 -4.622708e+00 156 99 112
2.349767e+00 4.880522e-01 -5.456205e+00 217 189 124
9.479826e-01 1.953757e-01 -5.675383e+00 97 4 5
2.124139e+00 -2.447314e-01 -6.095013e+00 223 187 47
1.972257e+00 -7.717029e-01 -6.406976e+00 214 187 67
2.038009e+00 -1.087662e+00 -6.247634e+00 216 190 68
2.077878e+00 -2.458718e+00 -1.134542e+01 95 85 102
2.609846e+00 -3.105157e+00 -9.849983e+00 53 42 52
2.343380e+00 -3.570304e+00 -1.072854e+01 37 33 48
1.108779e-01 1.331765e+00 -5.756110e+00 93 2 5
2.264773e+00 1.563683e+00 -5.524689e+00 194 169 114
3.013920e-01 1.228990e+00 -5.587830e+00 163 18 28
4.332001e-01 1.055158e+00 -5.544397e+00 171 150 172
2.090088e-01 6.514850e-01 -5.396984e+00 218 203 220
-4.705513e-01 4.667358e-01 -4.669916e+00 107 54 70
8.268322e-01 5.694409e-01 -5.493561e+00 95 0 2
-7.076222e-01 2.910183e-01 -4.628906e+00 208 146 165
9.833524e-01 9.401164e-02 -5.557434e+00 73 5 8
2.284251e+00 -4.772717e-02 -5.708803e+00 219 194 130
2.230438e+00 -1.010291e+00 -5.817721e+00 204 197 104
9.084681e-02 1.044534e+00 -5.608652e+00 91 0 1
4.857805e-01 9.720818e-01 -5.539367e+00 163 18 29
2.217480e+00 9.068766e-01 -5.895174e+00 214 179 57
3.962420e-01 5.024202e-01 -5.400313e+00 70 6 6
1.338037e+00 6.022523e-01 -5.734940e+00 164 21 25
-9.867703e-01 2.450982e-01 -4.827791e+00 244 193 206
3.338288e-01 -3.404513e-02 -5.861860e+00 197 32 55
-7.428201e-01 4.185637e-01 -4.647018e+00 186 201 240
9.892053e-01 5.766615e-01 -5.493459e+00 212 193 208
9.892053e-01 5.766615e-01 -5.493459e+00 212 193 208
1.290180e+00 2.405139e-01 -5.535049e+00 188 119 132
1.028347e+00 3.934141e-02 -5.483447e+00 180 116 131
1.194007e+00 -1.629423e-01 -5.232019e+00 212 144 156
-7.986803e-01 6.393746e-01 -4.620101e+00 192 206 241
-6.169051e-01 3.679063e-01 -4.681026e+00 200 140 158
1.134369e-01 3.767372e-01 -5.492566e+00 152 22 32
8.637944e-01 1.005731e-01 -5.626074e+00 210 178 197
-7.314256e-01 -1.608729e-01 -5.032735e+00 23 24 29
-7.576650e-01 5.357635e-01 -4.596783e+00 20 27 44
-7.576650e-01 5.357635e-01 -4.596783e+00 20 27 44
-7.562182e-01 5.363913e-01 -4.598737e+00 20 27 44
-1.684886e+00 3.451563e+00 -1.060461e+01 97 44 18
-3.398377e+00 3.842043e+00 -1.168845e+01 143 85 86
-4.911475e+00 3.772816e+00 -1.144504e+01 128 70 58
-4.911475e+00 3.772816e+00 -1.144504e+01 128 70 58
-4.726491e+00 3.739909e+00 -1.138228e+01 135 75 58
-5.313993e+00 3.700506e+00 -1.126410e+01 111 38 15
-5.313993e+00 3.700506e+00 -1.126410e+01 111 38 15
-4.756187e+00 3.706864e+00 -1.144423e+01 125 48 26
-5.374470e+00 3.679201e+00 -1.133989e+01 118 62 55
-5.374470e+00 3.679201e+00 -1.133989e+01 118 62 55
-4.764183e+00 3.651352e+00 -1.140229e+01 135 72 66
-4.920221e+00 3.614477e+00 -1.140096e+01 123 47 25
-4.900838e+00 3.568746e+00 -1.123886e+01 123 46 20
-4.900838e+00 3.568746e+00 -1.123886e+01 123 46 20
-3.672642e+00 3.619362e+00 -1.163057e+01 132 53 29
-5.393572e+00 3.601784e+00 -1.142061e+01 123 70 69
-5.393572e+00 3.601784e+00 -1.142061e+01 123 70 69
-4.994153e+00 3.549952e+00 -1.133606e+01 129 71 70
-3.216795e+00 3.578220e+00 -1.173539e+01 141 90 81
-3.812361e+00 3.575090e+00 -1.176094e+01 130 56 28
-3.714003e+00 3.550220e+00 -1.168260e+01 129 58 43
-5.362238e+00 3.471334e+00 -1.133765e+01 125 72 64
-5.193989e+00 3.471485e+00 -1.137092e+01 128 72 58
-5.193989e+00 3.471485e+00 -1.137092e+01 128 72 58
1.861541e+00 1.944745e+00 -6.599986e+00 101 76 44
2.319252e+00 1.616306e+00 -5.445584e+00 195 164 83
2.319252e+00 1.616306e+00 -5.445584e+00 195 164 83
-3.784587e+00 3.467140e+00 -1.170094e+01 136 56 30
-3.784587e+00 3.467140e+00 -1.170094e+01 136 56 30
-3.791924e+00 3.402222e+00 -1.159806e+01 143 79 73
-1.368969e+00 2.971594e+00 -1.123568e+01 70 31 17
1.420114e+00 1.412288e+00 -5.373826e+00 148 108 118
2.275374e+00 1.403879e+00 -5.554168e+00 199 146 52
1.698466e-01 1.410349e+00 -5.740253e+00 157 20 29
-8.625936e-01 2.261312e+00 -9.668232e+00 35 26 28
4.181886e-01 1.063321e+00 -5.541036e+00 225 194 213
-6.958732e-01 8.759835e-01 -4.591272e+00 207 155 167
-5.740201e-01 8.442300e-01 -4.615762e+00 196 145 161
-8.454637e-01 8.085768e-01 -4.588398e+00 192 143 161
-7.214654e-01 8.068605e-01 -4.579789e+00 216 161 173
6.934930e-02 9.464631e-01 -5.591850e+00 157 16 22
4.098454e-01 9.238115e-01 -5.524944e+00 197 134 154
-6.231289e-01 7.365701e-01 -4.570563e+00 146 87 106
-8.697878e-02 8.025172e-01 -5.446721e+00 120 11 14
2.006941e+00 8.493732e-01 -5.752505e+00 172 117 124
-6.252783e-01 6.699464e-01 -4.566539e+00 216 151 165
1.454520e+00 8.016262e-01 -5.735554e+00 132 12 11
-5.134261e-01 6.494741e-01 -4.599030e+00 235 171 178
-9.070958e-01 5.993435e-01 -4.566638e+00 239 176 188
-3.537059e-01 5.574635e-01 -4.726416e+00 202 154 165
5.840865e-02 5.831883e-01 -5.357315e+00 193 170 185
-3.948195e-01 4.352202e-01 -4.631588e+00 177 118 132
2.086593e+00 5.524738e-01 -6.174748e+00 138 85 16
-4.005992e-01 4.130280e-01 -4.627153e+00 187 133 147
-8.461868e-01 2.854284e-01 -4.674519e+00 217 155 166
-3.929893e-01 2.773232e-01 -4.637088e+00 216 163 174
2.421194e+00 -1.277627e-01 -5.288393e+00 228 196 207
2.158668e+00 -1.789202e-01 -6.019978e+00 174 144 32
5.095528e-01 -1.767636e-01 -5.908793e+00 186 32 41
2.025007e+00 -2.348535e-01 -6.059362e+00 179 127 103
1.004738e+00 -2.863379e-01 -5.348717e+00 207 143 156
2.385411e+00 -4.002765e-01 -5.368161e+00 230 189 193
2.113820e+00 -5.093470e-01 -6.120481e+00 177 147 42
2.129533e+00 -1.987114e+00 -1.100594e+01 91 79 87
2.129533e+00 -1.987114e+00 -1.100594e+01 91 79 87
2.267079e+00 -1.996716e+00 -1.075230e+01 71 60 79
2.223882e+00 -1.002625e+00 -5.801096e+00 197 196 105
2.092282e+00 -2.181515e+00 -1.128068e+01 68 55 68
2.212381e+00 -1.672354e+00 -8.341381e+00 177 164 132
1.328610e+00 -2.957849e+00 -1.369480e+01 45 36 39
1.337767e+00 -2.978449e+00 -1.350800e+01 64 56 68
1.901081e+00 -2.607083e+00 -1.194674e+01 60 48 58
2.407376e+00 -2.376056e+00 -1.044688e+01 101 91 104
2.347251e+00 -2.508936e+00 -1.050979e+01 64 53 67
2.347251e+00 -2.508936e+00 -1.050979e+01 64 53 67
1.132997e+00 -3.596098e+00 -1.433293e+01 32 27 34
1.813727e+00 -3.182107e+00 -1.228096e+01 76 72 86
1.932568e+00 -3.036211e+00 -1.178292e+01 89 85 100
2.385504e+00 -2.829039e+00 -1.041879e+01 57 46 59
1.512673e+00 -3.666294e+00 -1.320985e+01 58 54 67
1.802798e+00 -3.448334e+00 -1.230539e+01 44 36 48
2.055949e+00 -3.244084e+00 -1.158207e+01 91 78 87
2.203028e+00 -3.114847e+00 -1.112342e+01 54 48 58
2.586792e+00 -2.730540e+00 -9.831121e+00 46 35 44
1.200808e+00 -4.174833e+00 -1.433613e+01 42 33 36
1.936129e+00 -3.457370e+00 -1.185449e+01 52 47 69
2.526684e+00 -2.938037e+00 -1.008034e+01 79 70 88
2.756827e+00 -2.893275e+00 -9.443215e+00 118 109 127
2.579007e+00 -3.167800e+00 -9.920509e+00 91 78 88
2.894197e+00 -2.887409e+00 -8.956298e+00 56 47 63
1.571441e+00 -4.356040e+00 -1.312315e+01 45 43 54
2.186147e+00 -3.694727e+00 -1.100154e+01 88 85 102
9.617444e-01 -5.173083e+00 -1.472679e+01 48 48 58
2.202478e+00 -3.818892e+00 -1.106173e+01 89 88 105
1.455710e+00 -4.723901e+00 -1.347193e+01 21 20 25
-3.807160e+00 3.859242e+00 -1.165338e+01 147 93 87
-5.217291e+00 3.698950e+00 -1.127892e+01 115 40 24
2.294702e+00 1.633849e+00 -5.495686e+00 197 170 94
6.527286e-01 1.609469e+00 -5.800166e+00 176 23 34
-1.424063e+00 3.003223e+00 -1.110071e+01 72 24 13
7.397364e-01 1.482894e+00 -5.803535e+00 118 1 4
1.197153e+00 1.413102e+00 -5.737944e+00 186 135 149
-7.661396e-01 8.231024e-01 -4.617736e+00 212 154 170
1.906965e-02 9.905574e-01 -5.663971e+00 76 1 0
-3.629518e-01 7.652181e-01 -4.743286e+00 50 20 17
-5.421985e-01 7.465574e-01 -4.608402e+00 228 163 173
2.262816e+00 8.991518e-01 -5.660918e+00 215 184 100
1.055643e-01 8.326690e-01 -5.513001e+00 184 28 41
-5.620939e-01 6.736992e-01 -4.580646e+00 175 117 131
-4.991913e-01 6.250563e-01 -4.615591e+00 237 174 184
4.364879e-02 7.070353e-01 -5.412683e+00 157 20 33
2.076179e-01 6.949534e-01 -5.404256e+00 71 5 13
4.106915e-01 6.510166e-01 -5.379010e+00 243 214 220
6.590027e-01 6.514195e-01 -5.478756e+00 167 20 29
1.989772e-01 6.087543e-01 -5.367064e+00 75 20 46
2.332688e+00 6.314830e-01 -5.537538e+00 211 158 64
-6.514065e-01 4.839400e-01 -4.612908e+00 183 160 191
-3.645141e-01 4.217343e-01 -4.656093e+00 189 126 142
8.392068e-02 3.968221e-01 -5.484984e+00 211 43 71
-5.419533e-01 3.218366e-01 -4.574960e+00 240 184 194
-5.045007e-01 2.826261e-01 -4.599159e+00 240 183 198
2.042056e+00 3.210617e-01 -6.300679e+00 175 140 44
-3.927477e-01 2.360606e-01 -4.627294e+00 212 159 172
7.653158e-01 2.262105e-01 -5.758662e+00 209 36 57
7.943675e-01 2.238128e-01 -5.711839e+00 214 37 60
1.469916e+00 8.352895e-02 -5.252936e+00 207 146 155
2.415067e+00 -1.654264e-01 -5.298725e+00 234 194 197
2.073669e+00 -2.414509e-01 -6.098199e+00 120 75 16
1.231859e+00 -1.917154e-01 -5.232830e+00 217 154 158
2.411555e+00 -2.140285e-01 -5.252748e+00 231 191 211
2.096458e+00 -2.769733e-01 -6.089089e+00 97 62 2
1.230512e+00 -2.194700e-01 -5.246495e+00 188 125 145
5.911964e-01 -2.794066e-01 -5.591475e+00 185 30 48
2.398832e+00 -2.810640e-01 -5.333480e+00 227 195 196
1.967886e+00 -4.674396e-01 -6.399980e+00 228 192 72
2.380289e+00 -4.387215e-01 -5.386707e+00 231 184 196
2.380357e+00 -5.163990e-01 -5.413556e+00 224 69 105
2.226256e+00 -1.901594e+00 -8.303507e+00 113 98 79
2.364191e+00 -2.014141e+00 -8.004688e+00 188 178 144
1.609646e+00 -3.456779e+00 -1.287898e+01 88 85 104
2.009592e+00 -3.266461e+00 -1.165761e+01 56 47 53
2.709272e+00 -2.661443e+00 -9.492549e+00 58 41 44
2.709272e+00 -2.661443e+00 -9.492549e+00 58 41 44
9.643849e-01 -4.375731e+00 -1.485297e+01 10 10 12
2.128366e+00 -3.454690e+00 -1.123614e+01 84 78 96
-2.234989e+00 -7.117566e+00 -2.078271e+01 80 73 88
2.623704e+00 -3.153757e+00 -9.672335e+00 117 111 134
1.558194e+00 -4.511562e+00 -1.311996e+01 38 35 48
1.558194e+00 -4.511562e+00 -1.311996e+01 38 35 48
-2.186152e+00 -7.643813e+00 -2.135091e+01 55 53 69
-3.690156e+00 3.859415e+00 -1.150685e+01 138 48 24
3.126921e-01 1.670775e+00 -5.774137e+00 115 8 12
2.139461e+00 1.614119e+00 -5.945515e+00 181 130 43
3.702390e-01 1.512985e+00 -5.757300e+00 129 2 6
2.112842e+00 1.600055e+00 -5.976508e+00 173 139 72
-5.529252e-01 2.367558e+00 -9.627699e+00 12 10 10
1.188797e+00 1.081451e+00 -5.178899e+00 185 131 143
1.225400e+00 1.212905e+00 -5.879623e+00 132 11 16
1.274402e+00 1.117430e+00 -5.833035e+00 174 24 37
7.198167e-05 9.580186e-01 -5.629702e+00 115 11 13
-8.848962e-01 7.354231e-01 -4.569957e+00 229 167 181
1.766647e-01 8.195711e-01 -5.508651e+00 181 25 39
-6.825073e-01 6.864564e-01 -4.557827e+00 235 173 186
-7.160017e-01 6.690629e-01 -4.580927e+00 226 155 168
1.045430e-01 7.701746e-01 -5.494953e+00 113 3 6
-5.239392e-01 6.305255e-01 -4.593856e+00 170 104 125
4.711960e-01 7.053143e-01 -5.369044e+00 242 226 228
3.350611e-01 6.894073e-01 -5.314284e+00 218 198 209
-6.533086e-01 5.961257e-01 -4.633242e+00 246 229 240
-4.998504e-01 5.842665e-01 -4.610535e+00 189 126 143
-4.998504e-01 5.842665e-01 -4.610535e+00 189 126 143
1.430846e+00 7.129790e-01 -5.764011e+00 163 24 31
-3.089510e-02 6.481928e-01 -5.384180e+00 210 35 60
1.182796e+00 6.436988e-01 -5.616545e+00 148 18 24
1.409530e+00 6.416624e-01 -5.742603e+00 162 24 28
-4.054489e-01 5.216631e-01 -4.676901e+00 226 170 182
4.050645e-01 5.676541e-01 -5.434574e+00 158 25 44
1.951740e+00 6.034128e-01 -6.239782e+00 128 70 63
-2.920107e-01 4.495363e-01 -4.664381e+00 207 154 169
-8.041000e-01 4.204066e-01 -4.593992e+00 161 178 219
-2.787565e-01 3.879409e-01 -4.723471e+00 176 116 134
5.387017e-01 2.920185e-01 -5.644127e+00 222 40 64
1.181051e+00 2.903942e-01 -5.742243e+00 185 31 43
5.076613e-01 2.586667e-01 -5.630102e+00 125 4 14
1.122835e+00 6.204030e-02 -5.395089e+00 184 123 138
-4.746142e-01 6.613262e-02 -4.644998e+00 242 194 208
-6.059678e-01 2.910827e-02 -4.635800e+00 249 199 210
-4.379938e-01 -1.614534e-02 -4.786937e+00 228 179 190
-8.619304e-01 -7.059421e-02 -4.983863e+00 230 162 175
5.569846e-01 -1.712535e-01 -5.745696e+00 173 27 36
2.041657e+00 -2.063493e-01 -6.083415e+00 113 69 10
7.321913e-01 -1.977608e-01 -5.471423e+00 190 29 45
7.671061e-01 -3.313252e-01 -5.486943e+00 196 30 48
1.985238e+00 -7.497043e-01 -6.412004e+00 219 187 72
1.829161e+00 -1.034214e+00 -6.679349e+00 204 181 69
1.180185e+00 -2.288057e+00 -1.218876e+01 121 95 72
1.115384e-01 -2.585250e+00 -1.240286e+01 107 80 72
1.614462e+00 -2.766050e+00 -1.261326e+01 47 39 44
1.188367e+00 -3.150622e+00 -1.398624e+01 44 38 47
-4.899998e-01 -3.111741e+00 -1.313608e+01 106 82 85
-1.513762e+00 -3.274271e+00 -1.347841e+01 85 77 89
1.929912e+00 -3.289529e+00 -1.188303e+01 51 46 60
2.452486e+00 -2.898604e+00 -1.030311e+01 60 52 63
2.452486e+00 -2.898604e+00 -1.030311e+01 60 52 63
2.638745e+00 -2.769604e+00 -9.713553e+00 60 46 62
5.844731e-01 -4.159782e+00 -1.398433e+01 12 12 12
2.773284e+00 -2.754452e+00 -9.232289e+00 56 44 54
6.986770e-01 -4.461676e+00 -1.445484e+01 10 10 10
6.986770e-01 -4.461676e+00 -1.445484e+01 10 10 10
2.294740e+00 -3.850228e+00 -1.088418e+01 84 79 98
-3.123958e+00 3.579569e+00 -1.176542e+01 136 51 17
-3.123958e+00 3.579569e+00 -1.176542e+01 136 51 17
4.218094e-01 1.512929e+00 -5.801453e+00 124 3 10
5.605291e-01 1.479132e+00 -5.717173e+00 140 8 15
2.149549e+00 1.559650e+00 -5.926610e+00 188 163 106
1.413828e+00 1.338078e+00 -5.313094e+00 127 84 93
-8.467923e-01 7.798182e-01 -4.563658e+00 152 97 120
-7.134297e-01 7.528178e-01 -4.558927e+00 224 165 176
1.354192e+00 9.115767e-01 -5.735342e+00 130 11 17
1.047729e+00 7.086798e-01 -5.592449e+00 189 32 43
2.869339e-01 6.201948e-01 -5.388091e+00 161 131 139
-2.872620e-01 3.332032e-01 -4.689681e+00 189 128 143
3.676671e-01 -2.254104e-01 -6.040602e+00 163 22 33
5.271606e-01 -2.324448e-01 -5.760965e+00 178 28 43
5.534440e-01 -1.893774e+00 -1.228365e+01 109 86 68
2.024113e+00 -1.100709e+00 -6.220490e+00 212 187 63
2.024113e+00 -1.100709e+00 -6.220490e+00 212 187 63
1.361871e+00 -2.527945e+00 -1.239748e+01 17 29 48
2.219445e+00 -1.825738e+00 -8.333983e+00 178 170 139
2.150641e+00 -3.230597e+00 -1.118364e+01 52 41 50
2.678176e+00 -3.082577e+00 -1.007036e+01 98 97 121
2.601391e+00 -3.093316e+00 -9.816435e+00 53 42 52
-1.744912e+00 3.133391e+00 -1.115904e+01 95 48 19
6.132636e-01 1.623746e+00 -5.829850e+00 64 2 0
2.285460e+00 1.352625e+00 -5.551448e+00 198 170 98
8.233956e-01 9.302303e-01 -5.606035e+00 151 15 29
-1.162442e-01 7.345658e-01 -5.390687e+00 151 13 29
2.044932e+00 7.572066e-01 -5.911116e+00 196 141 142
2.319197e+00 6.585521e-01 -5.566327e+00 214 185 121
-8.778797e-01 4.199073e-01 -4.649332e+00 241 190 207
2.121543e+00 4.747870e-01 -6.195181e+00 188 146 42
-8.046356e-01 1.754116e-01 -4.671975e+00 237 179 193
2.821501e-01 8.550881e-02 -5.990999e+00 207 30 52
2.402963e+00 -1.364546e-01 -5.340267e+00 224 38 63
4.124560e-01 -1.804092e-01 -5.945876e+00 206 32 56
2.420451e+00 -2.054669e-01 -5.300664e+00 227 178 194
2.405800e+00 -2.725608e-01 -5.301338e+00 222 182 193
2.405800e+00 -2.725608e-01 -5.301338e+00 222 182 193
1.995782e+00 -4.168576e-01 -6.098214e+00 192 140 152
1.830036e+00 -2.144236e+00 -1.199264e+01 90 77 87
4.620244e-01 -3.248251e+00 -1.302834e+01 105 80 64
2.329811e+00 -1.919992e+00 -8.061299e+00 188 174 148
2.905404e+00 -2.797891e+00 -8.939314e+00 60 49 63
1.421167e+00 -4.505374e+00 -1.352868e+01 68 65 75
2.346769e+00 -3.578578e+00 -1.074499e+01 37 33 48
8.091881e-01 -5.059147e+00 -1.484006e+01 42 42 51
-7.127300e-01 3.192083e+00 -1.017246e+01 27 17 13
2.283460e+00 1.670905e+00 -5.501477e+00 191 166 47
1.215311e+00 1.379515e+00 -5.445642e+00 134 93 110
-5.193537e-01 2.160010e+00 -9.638768e+00 26 22 21
8.264451e-01 7.752075e-01 -5.533901e+00 166 21 27
-5.389920e-02 6.928573e-01 -5.408419e+00 194 33 50
2.381598e+00 7.041851e-01 -5.433284e+00 214 159 61
-3.932654e-02 5.708276e-01 -5.460853e+00 221 210 224
1.483915e+00 5.672265e-01 -5.773974e+00 192 34 55
6.486711e-02 4.604633e-01 -5.491817e+00 228 55 94
6.486711e-02 4.604633e-01 -5.491817e+00 228 55 94
1.144553e+00 1.636939e-01 -5.522720e+00 189 122 139
6.630763e-01 -2.324557e+00 -1.211117e+01 24 23 26
1.115966e+00 -4.283013e+00 -1.462565e+01 50 44 52
2.274411e+00 -3.665045e+00 -1.098759e+01 74 72 95
3.474890e-02 1.115567e+00 -5.711429e+00 163 14 25
8.876045e-01 5.276747e-01 -5.444124e+00 212 196 202
8.876045e-01 5.276747e-01 -5.444124e+00 212 196 202
2.284971e+00 3.775258e-01 -5.578911e+00 217 190 121
-7.686552e-02 2.628764e-01 -5.580269e+00 230 212 228
-1.024129e+00 1.436895e-01 -4.874053e+00 232 158 173
2.148926e+00 -6.784740e-01 -6.207329e+00 208 183 76
2.134890e-01 -2.579940e+00 -1.229290e+01 101 75 60
-1.832425e+00 -2.840403e+00 -1.250199e+01 85 82 101
3.245871e-01 -3.468262e+00 -1.326291e+01 9 9 9
2.499727e+00 -2.740155e+00 -1.012237e+01 100 96 118
-2.944054e+00 3.087985e+00 -1.200636e+01 24 22 27
6.642583e-01 1.055960e+00 -5.564261e+00 128 9 12
1.368944e+00 3.514745e-01 -5.657216e+00 67 9 10
3.095942e-03 2.250770e-01 -5.670632e+00 199 31 51
1.751353e+00 -9.842932e-01 -6.901170e+00 200 180 66
-1.267312e+00 -2.921512e+00 -1.255573e+01 58 58 69
9.832930e-01 -3.776390e+00 -1.406326e+01 51 49 60
2.510036e+00 -3.364973e+00 -1.028000e+01 72 66 88
5.497814e-02 1.436379e+00 -5.837956e+00 160 15 26
2.353460e+00 5.838291e-01 -5.517861e+00 214 155 47
-1.311553e-02 3.316012e-01 -5.522018e+00 235 234 242
2.009186e+00 -5.417821e-01 -6.267707e+00 218 185 69
1.477612e+00 -4.222356e+00 -1.245267e+01 51 48 65
6.027637e-01 1.442365e+00 -5.787435e+00 146 12 20
5.557094e-01 1.270519e+00 -5.813579e+00 24 8 9
1.369709e+00 -4.076290e+00 -1.338390e+01 56 51 64
1.894571e+00 8.097696e-01 -6.200895e+00 192 132 142
3.331720e-02 5.341340e-01 -5.442508e+00 244 238 244
2.150908e+00 6.805388e-01 -5.930022e+00 217 166 52
9.650959e-01 -2.065384e-01 -5.421546e+00 215 147 158
2.186844e+00 1.890783e+00 -5.775267e+00 181 145 34
9.972257e-02 3.188652e+00 -1.031842e+01 6 5 5
3.473371e-01 3.163352e+00 -1.024358e+01 14 14 13
1.775169e+00 2.064891e+00 -6.818456e+00 113 88 22
2.110072e+00 1.762317e+00 -6.014286e+00 167 116 41
-1.504742e+00 3.128535e+00 -1.101211e+01 79 37 18
2.112620e+00 1.670601e+00 -5.911085e+00 178 125 35
9.103875e-01 1.575804e+00 -5.697185e+00 172 25 39
-2.377588e+00 3.008267e+00 -1.163970e+01 91 86 97
1.388783e-01 1.408271e+00 -5.825100e+00 160 19 28
-7.735552e-01 2.244354e+00 -9.647094e+00 21 17 17
1.471496e-01 1.123555e+00 -5.606870e+00 160 17 26
2.393346e+00 1.004270e+00 -5.397569e+00 203 166 88
5.333831e-01 9.249081e-01 -5.540706e+00 187 125 138
-1.079547e+00 6.842209e-01 -4.639545e+00 237 175 188
2.439014e-01 6.658042e-01 -5.370472e+00 187 157 175
3.980953e-01 6.113383e-01 -5.415612e+00 124 19 39
-4.410546e-01 4.687368e-01 -4.659681e+00 171 121 136
2.645141e-02 5.256904e-01 -5.462956e+00 231 215 227
-7.833202e-01 3.897527e-01 -4.644226e+00 234 192 216
2.357057e+00 1.311903e-01 -5.453575e+00 184 158 94
1.064608e+00 1.087823e-01 -5.490183e+00 135 60 70
1.044556e+00 5.016490e-02 -5.413869e+00 187 127 143
2.180069e+00 2.512229e-02 -5.947235e+00 167 136 16
2.180069e+00 2.512229e-02 -5.947235e+00 167 136 16
2.419631e+00 -1.461359e-01 -5.318648e+00 216 77 94
2.419631e+00 -1.461359e-01 -5.318648e+00 216 77 94
7.575867e-01 -1.570351e-01 -5.492937e+00 170 20 32
2.331716e+00 -1.875428e-01 -5.566427e+00 187 154 21
-6.725348e-01 -1.941495e-01 -4.972583e+00 163 189 229
2.160588e+00 -3.683724e-01 -5.996863e+00 168 134 18
2.406612e+00 -3.535245e-01 -5.357142e+00 208 95 124
2.392011e+00 -4.249961e-01 -5.365442e+00 211 98 137
2.384143e+00 -4.699365e-01 -5.374980e+00 210 105 133
2.384143e+00 -4.699365e-01 -5.374980e+00 210 105 133
2.403201e+00 -5.799802e-01 -5.345419e+00 241 146 70
1.904677e+00 -1.880141e+00 -1.187008e+01 66 52 59
-3.256743e-01 -2.192249e+00 -1.255594e+01 110 90 92
2.007946e+00 -1.979375e+00 -1.148188e+01 107 91 101
2.007946e+00 -1.979375e+00 -1.148188e+01 107 91 101
2.019577e+00 -2.185351e+00 -1.140127e+01 72 57 69
2.019577e+00 -2.185351e+00 -1.140127e+01 72 57 69
1.303082e+00 -2.577545e+00 -1.285097e+01 29 33 52
1.081156e+00 -3.013158e+00 -1.427886e+01 70 66 80
1.986682e+00 -2.414336e+00 -1.157386e+01 51 41 50
1.954698e+00 -2.721373e+00 -1.172008e+01 70 59 72
2.453883e+00 -2.382779e+00 -1.014221e+01 111 103 121
2.344503e+00 -2.747101e+00 -1.060481e+01 116 108 122
1.515041e+00 -3.529894e+00 -1.316727e+01 72 66 81
1.659141e+00 -3.396692e+00 -1.272732e+01 52 46 59
1.398343e+00 -3.618541e+00 -1.341703e+01 70 65 77
2.009251e+00 -3.138320e+00 -1.159535e+01 95 90 98
1.854091e+00 -3.344167e+00 -1.209562e+01 51 44 60
1.698772e+00 -3.614939e+00 -1.254711e+01 28 25 35
2.584435e+00 -2.888980e+00 -9.980830e+00 85 80 101
2.302560e+00 -3.219328e+00 -1.079625e+01 113 110 127
1.877795e+00 -3.650606e+00 -1.213018e+01 56 54 70
2.831983e+00 -2.796182e+00 -9.224789e+00 83 67 81
2.570705e+00 -3.086445e+00 -1.005159e+01 115 109 125
2.704472e+00 -2.967385e+00 -9.647694e+00 69 57 68
2.705621e+00 -2.996345e+00 -9.562326e+00 32 30 45
2.833721e+00 -2.895790e+00 -9.204455e+00 115 100 122
2.434075e+00 -3.383008e+00 -1.034726e+01 51 47 63
2.013514e+00 -3.904814e+00 -1.164732e+01 52 41 52
2.428732e+00 -3.501456e+00 -1.049784e+01 56 47 59
2.428732e+00 -3.501456e+00 -1.049784e+01 56 47 59
2.896981e+00 -3.045418e+00 -9.093737e+00 86 75 97
2.962495e+00 -2.967487e+00 -8.846396e+00 94 87 101
2.079153e+00 1.835871e+00 -6.070232e+00 158 107 35
2.067167e+00 1.853023e+00 -6.139671e+00 141 95 23
2.051496e+00 1.799080e+00 -6.050638e+00 140 107 47
6.963826e-01 1.595623e+00 -5.757782e+00 172 24 35
2.096769e+00 1.692159e+00 -6.027978e+00 144 115 63
2.300493e+00 1.364836e+00 -5.487798e+00 195 148 50
1.106731e-01 1.389391e+00 -5.808389e+00 171 24 35
4.531685e-01 1.370546e+00 -5.712959e+00 100 1 1
2.358559e+00 1.337095e+00 -5.413177e+00 202 178 111
2.372381e+00 1.236249e+00 -5.279707e+00 199 156 71
3.474383e-01 1.113811e+00 -5.537695e+00 175 23 37
3.520258e-01 9.980553e-01 -5.494308e+00 192 30 44
2.392290e+00 9.865397e-01 -5.352516e+00 215 181 109
2.277505e+00 8.880114e-01 -5.815231e+00 216 184 101
2.378571e+00 7.408713e-01 -5.414839e+00 219 185 122
2.392336e+00 7.216478e-01 -5.401718e+00 210 165 76
1.035372e+00 5.233090e-01 -5.458236e+00 205 40 72
-7.140394e-01 3.390037e-01 -4.654640e+00 246 184 198
-3.986017e-01 2.966122e-01 -4.619559e+00 224 173 182
2.218930e+00 -2.552484e-02 -5.856427e+00 209 174 47
2.369930e+00 -2.737771e-02 -5.416406e+00 221 190 75
1.099520e+00 -1.464417e-01 -5.297717e+00 198 127 145
7.074139e-01 -1.724702e-01 -5.536030e+00 150 15 21
1.297237e+00 -2.135876e-01 -5.231754e+00 186 128 142
2.143529e+00 -4.098883e-01 -6.052029e+00 226 194 61
2.065649e+00 -5.965454e-01 -6.220527e+00 161 170 128
2.103052e+00 -6.287128e-01 -6.151120e+00 165 138 43
1.668387e+00 -8.967381e-01 -7.071258e+00 199 176 75
2.161805e+00 -1.320447e+00 -5.908609e+00 202 152 45
2.490739e+00 -2.530800e+00 -1.009780e+01 67 55 65
1.357750e+00 -3.725063e+00 -1.368534e+01 42 35 44
1.990027e+00 -3.435880e+00 -1.177491e+01 87 81 96
2.176747e+00 -3.389665e+00 -1.115334e+01 48 44 54
2.542135e+00 -3.149194e+00 -1.009575e+01 66 50 61
2.275896e+00 -3.447115e+00 -1.091743e+01 57 46 60
2.744228e+00 -3.028624e+00 -9.451573e+00 53 44 58
2.650695e+00 -3.193726e+00 -9.777361e+00 117 111 134
2.857892e+00 -3.050681e+00 -9.124634e+00 123 117 137
2.470349e+00 -3.508715e+00 -1.035509e+01 94 91 109
2.601297e+00 -3.454559e+00 -9.963381e+00 105 99 117
2.421401e+00 1.667113e+00 -5.215476e+00 174 153 40
2.421401e+00 1.667113e+00 -5.215476e+00 174 153 40
-1.691711e+00 2.967640e+00 -1.141490e+01 26 14 15
2.205211e+00 1.512281e+00 -5.751267e+00 192 141 45
2.205211e+00 1.512281e+00 -5.751267e+00 192 141 45
2.288979e+00 1.395643e+00 -5.544143e+00 199 150 49
2.386212e+00 1.197128e+00 -5.278705e+00 204 178 120
-6.627914e-01 9.165435e-01 -4.635081e+00 157 124 143
1.215439e+00 9.785949e-01 -5.751754e+00 99 1 7
1.038281e+00 8.153694e-01 -5.589700e+00 161 20 28
-5.739495e-01 6.508183e-01 -4.580399e+00 221 165 178
1.053633e+00 6.125293e-01 -5.437312e+00 101 6 12
2.086360e+00 5.601515e-01 -6.168265e+00 147 94 24
2.380239e+00 3.980845e-01 -5.408194e+00 223 189 125
8.361638e-01 5.716051e-02 -5.629436e+00 223 198 214
1.109443e+00 -1.870982e-01 -5.320741e+00 204 133 146
5.847636e-01 -1.567785e+00 -1.231294e+01 117 88 63
1.771853e+00 -1.766275e+00 -1.219088e+01 76 54 63
2.347342e+00 -3.440505e+00 -1.064270e+01 57 53 69
2.347342e+00 -3.440505e+00 -1.064270e+01 57 53 69
2.138742e+00 1.767562e+00 -5.929968e+00 184 157 43
2.199568e+00 1.582195e+00 -5.809881e+00 191 165 78
-2.291388e+00 3.047689e+00 -1.156995e+01 19 17 20
4.581290e-01 1.473529e+00 -5.724752e+00 122 4 9
9.533593e-02 1.255823e+00 -5.716277e+00 139 13 17
1.116459e+00 1.309235e+00 -5.989638e+00 144 18 24
4.625240e-01 1.097964e+00 -5.538080e+00 169 21 31
-7.998328e-01 6.554658e-01 -4.600879e+00 243 231 243
8.387997e-01 7.086822e-01 -5.530102e+00 197 30 47
1.407412e+00 6.848740e-01 -5.775152e+00 104 9 6
8.966845e-01 -1.716405e-02 -5.560180e+00 51 9 18
2.168900e+00 -2.985934e+00 -1.111108e+01 51 48 60
2.804507e+00 -3.226858e+00 -9.371097e+00 72 50 58
1.058920e+00 7.680996e-01 -5.566521e+00 154 14 25
8.022313e-01 6.237688e-01 -5.495761e+00 183 26 44
8.022313e-01 6.237688e-01 -5.495761e+00 183 26 44
1.420636e+00 5.249237e-01 -5.781780e+00 118 9 11
1.364022e+00 4.847225e-01 -5.764922e+00 159 24 28
1.360165e+00 4.844960e-01 -5.748096e+00 159 24 28
7.985288e-01 3.810604e-02 -5.656174e+00 80 4 9
-2.681773e-01 -1.829336e+00 -1.235565e+01 130 110 117
1.803271e+00 -1.913562e+00 -1.212845e+01 69 55 55
5.143222e-01 -4.746137e+00 -1.404480e+01 4 4 4
1.604670e-01 1.000619e+00 -5.525140e+00 169 18 30
1.260255e-02 7.501641e-01 -5.403112e+00 91 1 7
1.668973e+00 -1.966609e+00 -1.232762e+01 115 90 66
2.376689e+00 1.312242e+00 -5.274825e+00 199 175 113
3.979107e-01 5.046981e-01 -5.377857e+00 72 3 2
7.679262e-01 1.207821e-01 -5.635880e+00 238 231 239
-6.693889e-01 5.749439e-01 -4.599005e+00 161 190 228
-8.305551e-01 -2.650590e-02 -4.900148e+00 242 188 200
7.058892e-01 3.089491e-01 -5.536996e+00 203 29 53
7.058892e-01 3.089491e-01 -5.536996e+00 203 29 53
2.276329e+00 -1.505892e+00 -5.666499e+00 215 38 66
4.849423e-01 3.156016e+00 -1.026397e+01 9 9 9
6.630687e-02 3.160980e+00 -1.051945e+01 8 8 8
1.970803e+00 2.209200e+00 -6.385822e+00 197 171 61
-6.559615e-02 2.259700e+00 -9.670838e+00 27 22 19
2.134984e+00 1.652498e+00 -5.948222e+00 218 182 97
8.373236e-01 1.525953e+00 -5.789944e+00 214 35 54
-2.083772e+00 2.097949e+00 -1.181263e+01 71 57 57
-2.819780e+00 2.199952e+00 -1.339220e+01 94 79 89
-2.715881e+00 1.894860e+00 -1.282738e+01 90 74 84
-2.837412e+00 1.859087e+00 -1.308693e+01 54 50 55
-9.096736e-01 8.452603e-01 -4.635555e+00 242 187 200
-9.314468e-01 8.067816e-01 -4.622978e+00 249 196 203
-9.460906e-01 7.535752e-01 -4.607549e+00 225 158 166
-8.330095e-01 7.485011e-01 -4.580557e+00 254 194 202
-6.572097e-01 7.514673e-01 -4.574575e+00 218 164 174
-6.591217e-01 7.009857e-01 -4.565020e+00 241 173 186
-5.791403e-01 6.954100e-01 -4.575311e+00 199 130 142
-9.360301e-01 6.445073e-01 -4.582264e+00 253 194 203
-8.549967e-01 6.342155e-01 -4.575019e+00 248 202 217
3.664700e-01 6.432149e-01 -5.355176e+00 155 106 126
2.350409e+00 6.864869e-01 -5.473524e+00 247 210 120
-8.787720e-01 5.049539e-01 -4.605825e+00 211 190 228
-5.221839e-01 5.232314e-01 -4.609807e+00 255 216 225
-5.764516e-01 4.133626e-01 -4.635121e+00 203 130 145
2.213648e+00 4.583681e-01 -5.467107e+00 242 192 94
-6.222477e-01 3.827721e-01 -4.621478e+00 218 145 162
-7.711031e-01 3.491272e-01 -4.643904e+00 248 196 208
-7.922017e-01 3.427084e-01 -4.655615e+00 229 165 184
-8.545205e-01 3.046156e-01 -4.691841e+00 253 203 211
-4.914563e-01 3.317475e-01 -4.576079e+00 248 202 215
-8.142217e-01 2.514201e-01 -4.678944e+00 253 193 205
-6.986441e-01 2.220992e-01 -4.592115e+00 255 203 216
-1.030950e+00 1.635391e-01 -4.885586e+00 255 201 209
5.734219e-01 1.277379e-01 -5.738725e+00 249 55 98
-8.274757e-01 1.810627e-01 -4.655285e+00 255 201 212
-3.861184e-01 1.966611e-01 -4.662356e+00 250 200 209
-7.823807e-01 1.421682e-01 -4.642090e+00 236 173 188
-3.876898e-01 1.311522e-01 -4.697264e+00 243 205 211
9.499192e-01 6.554197e-02 -5.576743e+00 203 153 169
-7.396415e-01 1.021102e-01 -4.652634e+00 251 208 218
-9.069698e-01 -1.332628e-02 -4.935764e+00 255 219 224
5.245365e-01 -1.416044e-01 -5.954912e+00 166 28 34
1.200674e+00 -3.553341e-02 -5.310979e+00 238 174 181
-8.240954e-01 -1.030631e-01 -4.979748e+00 118 141 191
-8.170796e-01 -1.471991e-01 -5.023805e+00 155 204 236
1.146730e+00 -2.487846e-01 -5.341457e+00 164 92 104
-7.803554e-01 -3.022612e-01 -5.204450e+00 237 189 200
1.045362e+00 -2.546618e-01 -5.328561e+00 213 141 155
2.158927e+00 -4.075512e-01 -6.014566e+00 206 172 45
1.914962e+00 -2.081265e+00 -1.174965e+01 74 49 49
2.075597e+00 -7.557072e-01 -6.189891e+00 196 170 45
2.075597e+00 -7.557072e-01 -6.189891e+00 196 170 45
2.111518e+00 -7.696933e-01 -6.128835e+00 200 172 44
2.262083e+00 -7.088049e-01 -5.754547e+00 239 211 71
2.014728e+00 -2.382003e+00 -1.146035e+01 118 101 112
2.315962e+00 -2.253444e+00 -1.066052e+01 141 131 142
1.670615e+00 -2.872350e+00 -1.267245e+01 74 61 72
2.226853e+00 -2.284952e+00 -1.072717e+01 97 81 93
1.238367e+00 -3.258723e+00 -1.364659e+01 74 63 73
1.360644e+00 -3.394330e+00 -1.353972e+01 71 60 76
1.994904e+00 -2.849786e+00 -1.161065e+01 90 83 99
1.994904e+00 -2.849786e+00 -1.161065e+01 90 83 99
2.026718e+00 -2.819653e+00 -1.147126e+01 132 121 135
1.281023e+00 -3.688863e+00 -1.372930e+01 104 94 108
1.281023e+00 -3.688863e+00 -1.372930e+01 104 94 108
2.323790e+00 -2.711817e+00 -1.064218e+01 80 68 82
2.469848e+00 -2.581286e+00 -1.016411e+01 128 115 128
2.288991e+00 -2.937377e+00 -1.074879e+01 76 68 83
1.842382e+00 -3.459882e+00 -1.213512e+01 78 64 77
2.256835e+00 -3.185862e+00 -1.088089e+01 116 111 129
2.151751e+00 -1.349394e+00 -5.906020e+00 231 180 51
2.555513e+00 -2.934419e+00 -1.000299e+01 140 131 151
1.777212e+00 -4.258581e+00 -1.245670e+01 106 103 119
2.847558e+00 -3.068617e+00 -9.221190e+00 105 97 120
-1.156024e+00 3.127599e+00 -1.092629e+01 80 33 9
-3.735390e+00 3.132345e+00 -1.242031e+01 124 114 131
6.783985e-01 2.883018e+00 -1.030439e+01 13 12 11
2.176957e+00 1.910496e+00 -5.716703e+00 216 173 52
2.176957e+00 1.910496e+00 -5.716703e+00 216 173 52
-6.767918e-01 2.154742e+00 -9.564345e+00 31 28 21
2.152057e+00 1.687607e+00 -5.858577e+00 223 187 110
2.323665e+00 1.584506e+00 -5.432212e+00 226 177 54
2.158755e+00 1.583048e+00 -5.884412e+00 217 170 66
2.173077e+00 1.589462e+00 -5.915322e+00 217 170 66
2.305270e+00 1.539134e+00 -5.499391e+00 223 180 77
4.591985e-02 9.306850e-01 -5.566823e+00 132 3 7
-1.043597e+00 6.881914e-01 -4.637638e+00 250 191 198
1.201151e+00 7.009655e-01 -5.573947e+00 216 40 62
1.249752e+00 7.035954e-01 -5.569265e+00 209 40 57
-6.024236e-01 6.063595e-01 -4.581715e+00 254 206 219
4.258414e-01 5.816696e-01 -5.354485e+00 249 53 103
-5.814834e-01 5.232975e-01 -4.594956e+00 255 208 220
-6.152923e-01 4.924209e-01 -4.566983e+00 252 200 208
2.113409e+00 4.818087e-01 -6.042751e+00 229 187 62
-6.677744e-01 3.599396e-01 -4.639285e+00 255 207 215
-7.918192e-01 3.212542e-01 -4.652405e+00 255 213 219
-8.285333e-01 3.080325e-01 -4.667780e+00 241 173 188
-8.703331e-01 2.831866e-01 -4.694638e+00 254 201 212
-1.018667e+00 2.385951e-01 -4.845390e+00 255 220 228
-7.248140e-01 2.488447e-01 -4.622852e+00 244 188 197
-1.127694e+00 1.351574e-01 -4.891432e+00 251 199 212
1.675055e+00 2.063920e-01 -5.264996e+00 198 148 84
-3.502499e-01 1.278515e-01 -4.713081e+00 252 212 219
4.656443e-01 -1.145160e-01 -5.941440e+00 223 38 59
4.974093e-01 -1.577168e-01 -5.899991e+00 211 37 60
1.225745e+00 -4.882986e-02 -5.316345e+00 156 83 90
6.649418e-01 -1.855920e-01 -5.566134e+00 171 20 27
2.431368e+00 -2.746969e-01 -5.314312e+00 252 217 234
2.131386e+00 -4.944655e-01 -6.097068e+00 246 218 83
2.051384e+00 -7.349628e-01 -6.275626e+00 179 192 148
2.046687e+00 -7.328935e-01 -6.264695e+00 179 192 148
1.907515e+00 -2.215651e+00 -1.183327e+01 82 63 67
2.267162e+00 -2.207863e+00 -1.075377e+01 152 150 170
2.216067e+00 -3.445975e+00 -1.104684e+01 85 72 86
2.931766e+00 -2.974742e+00 -8.904269e+00 83 71 88
-3.823286e-01 2.302166e+00 -9.662418e+00 33 24 19
-1.282238e+00 2.466226e+00 -1.112935e+01 56 34 31
-2.092390e-02 2.311221e+00 -9.724707e+00 42 29 23
2.186813e+00 1.860270e+00 -6.173274e+00 209 157 57
8.085049e-01 1.650029e+00 -5.701067e+00 171 22 33
2.179317e+00 1.742362e+00 -5.819811e+00 222 192 117
-1.724062e+00 2.101761e+00 -1.143220e+01 110 86 91
-2.540252e+00 2.110555e+00 -1.253616e+01 92 77 84
2.284358e+00 1.539575e+00 -5.525334e+00 229 203 130
2.271505e+00 1.518774e+00 -5.562336e+00 225 174 64
5.178911e-01 1.356267e+00 -5.767272e+00 182 29 36
-2.739977e+00 1.748007e+00 -1.276254e+01 88 72 81
1.705113e-01 1.199351e+00 -5.608975e+00 115 4 7
1.705113e-01 1.199351e+00 -5.608975e+00 115 4 7
9.559151e-02 9.191275e-01 -5.567089e+00 215 36 59
-7.672005e-01 7.954362e-01 -4.585530e+00 185 120 134
-9.269571e-02 7.711331e-01 -5.417040e+00 121 6 8
-8.828223e-01 6.778881e-01 -4.568180e+00 253 207 214
2.064888e+00 6.247023e-01 -6.185063e+00 208 171 108
-4.414154e-01 4.404571e-01 -4.625434e+00 149 91 108
2.020604e+00 3.072395e-01 -6.342052e+00 89 52 3
-8.909675e-01 3.045284e-01 -4.698082e+00 233 171 184
-1.044688e+00 1.814797e-01 -4.869553e+00 255 206 215
4.022119e-01 1.616148e-01 -5.621282e+00 236 58 108
-6.045483e-01 2.180349e-01 -4.567215e+00 254 216 224
9.040461e-01 1.886738e-02 -5.606631e+00 199 158 169
-1.007159e+00 2.000127e-02 -4.937755e+00 252 231 231
4.235375e-01 -2.598198e-01 -5.965573e+00 242 53 90
2.108763e+00 -4.797864e-01 -6.150733e+00 242 217 83
2.119460e+00 -5.379794e-01 -6.078916e+00 243 216 78
2.710746e+00 -2.867604e+00 -9.423966e+00 150 139 151
2.745140e+00 -2.904292e+00 -9.522676e+00 150 139 151
2.095019e+00 -3.742162e+00 -1.142874e+01 125 111 126
2.610115e+00 -3.314832e+00 -1.005205e+01 128 117 139
2.172862e-01 2.551284e+00 -9.833621e+00 23 19 18
6.040485e-01 1.612126e+00 -5.772547e+00 94 6 3
2.198900e+00 1.725476e+00 -5.741037e+00 221 192 94
8.527624e-01 1.589150e+00 -5.682511e+00 209 36 63
2.300250e+00 1.596377e+00 -5.468767e+00 231 171 56
2.182646e-01 1.347259e+00 -5.697276e+00 176 22 28
-9.010735e-01 7.283504e-01 -4.555545e+00 250 194 206
-5.398032e-01 7.099288e-01 -4.613899e+00 252 193 204
-1.008306e+00 6.367313e-01 -4.618890e+00 246 186 197
-9.376209e-01 5.826444e-01 -4.581548e+00 255 185 198
-8.244942e-01 5.805825e-01 -4.568554e+00 221 236 249
-5.355916e-01 5.933476e-01 -4.598796e+00 249 200 213
-9.078190e-01 5.581191e-01 -4.566564e+00 253 214 221
-1.076182e+00 5.046278e-01 -4.685529e+00 255 212 217
-6.352914e-01 5.085189e-01 -4.606679e+00 233 187 217
-9.162701e-01 4.667260e-01 -4.688586e+00 251 211 215
2.370725e+00 5.273384e-01 -5.410392e+00 247 190 62
-1.017099e+00 2.832952e-01 -4.772357e+00 253 191 202
8.174300e-01 1.714565e-01 -5.659716e+00 183 39 60
1.179682e+00 -2.181900e-01 -5.342676e+00 242 184 200
7.588677e-01 -2.220056e+00 -1.206170e+01 151 126 124
1.659964e+00 -3.918876e+00 -1.269867e+01 101 96 113
2.582912e+00 -1.433153e+00 -5.561190e+00 197 169 145
1.623593e-01 2.750142e+00 -1.008284e+01 37 28 26
6.131423e-01 1.692712e+00 -5.838266e+00 190 33 44
6.131423e-01 1.692712e+00 -5.838266e+00 190 33 44
-1.855421e+00 2.511741e+00 -1.260774e+01 76 59 65
2.216629e-01 1.186744e+00 -5.574977e+00 128 9 12
2.216629e-01 1.186744e+00 -5.574977e+00 128 9 12
-2.838884e+00 1.004426e+00 -1.261316e+01 117 95 105
9.040847e-01 8.487128e-01 -5.586505e+00 200 33 51
9.626108e-01 4.863630e-01 -5.491248e+00 182 33 66
-7.082883e-01 2.918796e-01 -4.612531e+00 226 160 169
-9.205968e-01 3.938166e-03 -4.898052e+00 252 217 221
-3.712286e-01 -7.506932e-02 -4.969316e+00 250 209 218
7.392379e-01 -4.431847e+00 -1.407459e+01 14 14 14
-1.551519e-02 2.452521e+00 -9.868367e+00 13 12 11
7.489436e-01 1.545471e+00 -5.752288e+00 223 41 66
-2.726418e+00 2.034837e+00 -1.304056e+01 95 79 89
2.840819e-01 8.084114e-01 -5.501977e+00 231 42 70
1.305547e+00 1.649095e-01 -5.446681e+00 133 25 23
2.288930e+00 1.258172e-01 -5.663318e+00 239 217 139
2.238864e+00 -1.014740e+00 -5.831828e+00 231 223 104
-4.549819e+00 -2.682352e-01 -1.747893e+01 141 133 148
-1.021361e+00 4.035033e-01 -4.764357e+00 250 208 217
1.316141e+00 4.223934e-01 -5.803005e+00 204 40 55
-3.379615e+00 3.469945e+00 -1.820491e+01 51 42 44
-2.413084e+00 1.665159e+00 -1.215619e+01 123 105 114
2.864284e-01 7.272323e-01 -5.416650e+00 71 3 8
-3.578166e-01 -2.111226e-01 -5.231359e+00 159 133 138
1.557266e+00 4.047846e-01 -5.898661e+00 205 40 50
5.026870e-01 1.063832e+00 -5.554264e+00 142 28 53
-1.027608e+00 7.803985e-01 -4.633913e+00 223 169 184
-6.719123e-01 7.280663e-01 -4.567752e+00 224 164 179
-6.719123e-01 7.280663e-01 -4.567752e+00 224 164 179
8.943601e-02 8.539551e-01 -5.533171e+00 175 25 40
-5.215875e-01 6.728114e-01 -4.605074e+00 236 170 182
2.399785e+00 7.481533e-01 -5.363382e+00 218 186 116
2.047187e+00 -3.328427e+00 -1.152441e+01 55 45 62
3.004047e-01 9.281563e-01 -5.509882e+00 170 20 31
1.971430e+00 -3.959919e+00 -1.183294e+01 71 67 87
4.786836e-01 3.049389e+00 -1.040252e+01 13 13 11
-7.176019e-02 2.260078e+00 -9.691568e+00 27 22 19
-5.909242e-01 2.156575e+00 -9.688579e+00 35 31 26
-1.435672e+00 2.267763e+00 -1.119966e+01 77 51 52
7.337892e-01 1.592166e+00 -5.750337e+00 202 33 55
-2.250347e+00 2.338250e+00 -1.274510e+01 79 64 69
-2.289592e+00 2.228421e+00 -1.266476e+01 79 65 72
-1.279520e-01 1.941139e+00 -9.604175e+00 27 25 20
-2.010463e+00 1.822797e+00 -1.150641e+01 98 77 87
1.223714e+00 1.280348e+00 -5.266313e+00 162 116 127
2.309123e+00 1.360642e+00 -5.488761e+00 228 179 57
2.309123e+00 1.360642e+00 -5.488761e+00 228 179 57
4.572639e-01 1.051093e+00 -5.548390e+00 221 200 223
4.166120e-01 1.037361e+00 -5.542980e+00 238 211 231
5.861012e-01 1.049950e+00 -5.560023e+00 162 28 49
4.645974e-01 9.124099e-01 -5.532165e+00 229 156 176
5.496750e-01 8.549194e-01 -5.526709e+00 223 192 208
5.496750e-01 8.549194e-01 -5.526709e+00 223 192 208
-9.344549e-01 6.756346e-01 -4.567356e+00 219 151 163
-6.255066e-01 6.707610e-01 -4.563427e+00 246 186 195
-8.911512e-01 4.837142e-01 -4.604809e+00 246 201 220
-5.325700e-01 3.607477e-01 -4.578677e+00 248 195 208
-7.815498e-01 1.424684e-01 -4.640858e+00 236 173 188
7.877655e-01 -1.379326e-01 -5.444040e+00 200 36 61
7.877655e-01 -1.379326e-01 -5.444040e+00 200 36 61
7.749700e-01 -1.665850e-01 -5.445140e+00 223 44 69
5.867616e-01 -2.265765e-01 -5.629127e+00 194 32 47
2.578517e+00 -3.331688e+00 -1.005598e+01 123 119 149
1.568925e+00 2.331641e+00 -7.346089e+00 114 95 82
1.568925e+00 2.331641e+00 -7.346089e+00 114 95 82
1.792893e+00 2.105993e+00 -6.745774e+00 102 69 19
1.806890e+00 1.976197e+00 -6.856148e+00 167 125 51
7.441007e-01 1.615209e+00 -5.756452e+00 168 15 27
-2.445661e+00 2.256134e+00 -1.294932e+01 84 72 76
2.294081e+00 1.579802e+00 -5.521603e+00 229 198 126
-5.627936e-01 1.858690e+00 -9.820832e+00 38 32 32
-5.993304e-01 1.690415e+00 -9.943186e+00 15 12 16
4.751721e-01 8.592687e-01 -5.537153e+00 222 198 216
2.339190e+00 7.132748e-01 -5.462180e+00 243 190 79
2.106845e+00 5.927320e-01 -6.137305e+00 217 185 116
2.185607e+00 4.531684e-01 -6.025755e+00 242 203 65
-1.026065e+00 1.428735e-01 -4.877250e+00 251 183 194
1.930512e+00 -3.954670e+00 -1.194943e+01 69 56 66
1.640823e+00 -4.645485e+00 -1.298491e+01 92 88 103
1.281060e+00 2.429825e+00 -7.872179e+00 19 15 16
2.235152e+00 1.794831e+00 -5.674042e+00 223 195 54
3.666329e-01 1.466772e+00 -5.745135e+00 171 22 28
2.177965e+00 1.563047e+00 -5.849601e+00 219 169 54
2.177965e+00 1.563047e+00 -5.849601e+00 219 169 54
5.374917e-01 1.404170e+00 -5.784102e+00 166 15 23
-3.108443e-01 1.689820e+00 -9.393682e+00 6 6 4
-6.330666e-01 1.727804e+00 -9.932128e+00 88 78 87
1.473192e+00 1.239675e+00 -5.271903e+00 185 130 132
