ply
format ascii 1.0
element face 0
property list uchar int vertex_indices
element vertex 934
property float x
property float y
property float z
property uchar diffuse_red
property uchar diffuse_green
property uchar diffuse_blue
end_header
1.931808e+00 -3.038999e+00 -1.182383e+01 89 85 100
1.942194e+00 -3.136651e+00 -1.191416e+01 56 49 62
2.381620e+00 -2.823693e+00 -1.044031e+01 57 46 59
1.932601e+00 -3.457822e+00 -1.188710e+01 52 47 69
2.249846e+00 -3.173798e+00 -1.088314e+01 87 83 99
2.104092e+00 -3.356239e+00 -1.134737e+01 88 81 96
2.447440e+00 -3.056083e+00 -1.027108e+01 69 59 74
2.479151e+00 -3.032573e+00 -1.021741e+01 117 106 126
2.314548e+00 -3.221865e+00 -1.071475e+01 53 46 61
2.621076e+00 -2.926869e+00 -9.817073e+00 78 70 91
2.328563e+00 -3.402504e+00 -1.073260e+01 99 95 118
2.379534e+00 -3.325687e+00 -1.053618e+01 106 98 119
2.468565e+00 -3.366349e+00 -1.032047e+01 115 112 131
2.374709e+00 -3.521721e+00 -1.054625e+01 99 95 113
2.672683e+00 -3.194802e+00 -9.665258e+00 112 106 124
2.158516e+00 -3.868837e+00 -1.119636e+01 50 45 58
2.038052e+00 1.850764e+00 -6.180214e+00 116 75 22
2.159272e+00 1.679242e+00 -5.878738e+00 191 165 111
5.777207e-01 1.338294e+00 -5.806511e+00 59 0 0
2.277390e+00 1.467690e+00 -5.547424e+00 200 170 99
2.300746e+00 1.442093e+00 -5.495882e+00 198 171 90
4.685987e-01 1.021069e+00 -5.527877e+00 156 20 54
-8.879552e-01 6.916019e-01 -4.555181e+00 204 140 157
7.984671e-02 8.888640e-01 -5.544414e+00 102 2 5
4.156689e-01 9.174322e-01 -5.514949e+00 197 134 154
-8.174722e-01 6.496499e-01 -4.579091e+00 232 173 197
-7.348499e-01 6.516434e-01 -4.587664e+00 241 217 230
-5.737648e-01 6.240834e-01 -4.567400e+00 217 156 171
1.967433e-01 6.261223e-01 -5.354225e+00 229 220 229
1.700702e-01 6.082192e-01 -5.352765e+00 233 219 230
2.360644e+00 6.649666e-01 -5.451151e+00 215 158 52
-4.074660e-01 3.603932e-01 -4.609835e+00 221 166 176
-7.544467e-01 2.823105e-01 -4.662707e+00 245 182 191
-3.617028e-01 2.960107e-01 -4.625274e+00 157 99 112
6.110860e-01 2.807808e-01 -5.626790e+00 212 37 58
-3.558473e-01 1.500245e-01 -4.666798e+00 157 101 113
-3.933701e-01 7.742294e-02 -4.713148e+00 219 170 182
-4.019119e-01 3.748415e-02 -4.742507e+00 226 178 187
9.539706e-01 6.716178e-02 -5.574522e+00 171 124 141
1.151112e+00 -1.682132e-01 -5.275482e+00 206 134 146
4.816410e-01 -2.925234e-01 -5.859795e+00 188 33 47
6.476030e-01 -3.391177e-01 -5.529322e+00 204 37 56
6.476030e-01 -3.391177e-01 -5.529322e+00 204 37 56
2.400839e+00 -3.211533e-01 -5.313799e+00 232 190 201
2.398909e+00 -3.708906e-01 -5.342399e+00 230 174 188
2.385660e+00 -4.471908e-01 -5.351895e+00 233 198 214
-2.858398e-01 -2.047935e+00 -1.253539e+01 121 96 106
2.374450e+00 -4.813503e-01 -5.416971e+00 235 186 196
1.745164e+00 -2.125857e+00 -1.226892e+01 62 47 48
2.041609e+00 -2.345470e+00 -1.136815e+01 63 47 58
2.250285e+00 -2.192786e+00 -1.072745e+01 119 118 135
2.207974e+00 -2.317362e+00 -1.090300e+01 124 120 135
2.207974e+00 -2.317362e+00 -1.090300e+01 124 120 135
1.843422e+00 -2.850987e+00 -1.204506e+01 56 45 55
1.655672e+00 -3.056769e+00 -1.263177e+01 54 48 60
1.553125e+00 -3.250443e+00 -1.312576e+01 81 74 84
1.435633e+00 -3.347457e+00 -1.337318e+01 47 38 45
1.180166e+00 -3.610365e+00 -1.413468e+01 57 53 64
2.335877e+00 -2.497026e+00 -1.049863e+01 64 53 67
2.481780e+00 -2.520156e+00 -1.009770e+01 67 55 65
1.731391e+00 -3.382824e+00 -1.250981e+01 96 91 106
2.329272e+00 -2.797693e+00 -1.062017e+01 57 46 52
1.303512e+00 -3.843570e+00 -1.370986e+01 44 38 49
2.227563e+00 -2.953799e+00 -1.092297e+01 108 100 118
2.026537e+00 -3.198150e+00 -1.146446e+01 91 78 87
1.628632e+00 -3.684883e+00 -1.274904e+01 42 35 47
2.467935e+00 -2.826735e+00 -1.014350e+01 103 99 121
1.595262e+00 -3.851582e+00 -1.291747e+01 36 26 32
2.432373e+00 -2.983221e+00 -1.032318e+01 101 92 109
2.067701e+00 -3.399455e+00 -1.141452e+01 39 35 50
2.135141e+00 -3.500340e+00 -1.120890e+01 53 51 64
2.264069e+00 -3.431304e+00 -1.091036e+01 57 46 60
2.237672e+00 -3.564182e+00 -1.103038e+01 81 79 96
2.437941e+00 -3.323355e+00 -1.040892e+01 101 97 119
2.729608e+00 -3.010251e+00 -9.441541e+00 53 44 58
2.761303e+00 -3.040128e+00 -9.390705e+00 78 67 82
2.613656e+00 -3.238455e+00 -9.870696e+00 61 53 71
2.853881e+00 -3.040948e+00 -9.140346e+00 123 117 137
7.473773e-01 1.603999e+00 -5.751454e+00 131 4 10
7.098551e-01 1.513594e+00 -5.789860e+00 113 5 7
9.703904e-01 1.527779e+00 -5.688157e+00 142 22 33
4.207442e-01 1.392415e+00 -5.709681e+00 99 2 3
6.062777e-01 1.424930e+00 -5.777701e+00 145 11 18
2.153762e+00 1.608672e+00 -5.885843e+00 191 163 109
2.153762e+00 1.608672e+00 -5.885843e+00 191 163 109
2.127895e+00 1.599966e+00 -5.935327e+00 181 130 43
2.257577e+00 1.564820e+00 -5.719920e+00 194 143 46
1.664559e-01 1.228132e+00 -5.631174e+00 149 14 20
2.759943e-01 1.211072e+00 -5.601354e+00 160 21 22
1.638006e+00 1.345155e+00 -5.436094e+00 69 30 30
1.638006e+00 1.345155e+00 -5.436094e+00 69 30 30
1.494793e+00 1.300477e+00 -5.355063e+00 94 50 54
-7.788462e-01 7.295364e-01 -4.555274e+00 175 107 129
-7.788462e-01 7.295364e-01 -4.555274e+00 175 107 129
-7.385263e-01 7.325091e-01 -4.555319e+00 178 107 123
-7.415197e-01 7.082836e-01 -4.550486e+00 228 165 173
-6.222896e-01 7.152672e-01 -4.567226e+00 225 172 181
1.267553e+00 1.072202e+00 -5.827501e+00 130 9 14
1.267553e+00 1.072202e+00 -5.827501e+00 130 9 14
7.944767e-04 8.359724e-01 -5.470215e+00 117 8 8
8.512196e-03 7.984199e-01 -5.465743e+00 163 21 33
6.661236e-02 7.889180e-01 -5.480879e+00 173 25 39
-5.073314e-01 6.277207e-01 -4.586019e+00 170 104 125
6.976449e-01 7.038228e-01 -5.489815e+00 193 28 44
-8.422557e-01 4.614343e-01 -4.598397e+00 168 156 199
-7.294315e-01 4.445468e-01 -4.602320e+00 165 217 254
8.943614e-01 6.393261e-01 -5.536226e+00 155 20 29
-8.884108e-01 4.027284e-01 -4.617710e+00 236 165 179
-3.898276e-01 3.788558e-01 -4.612185e+00 155 95 108
-3.453488e-01 3.345798e-01 -4.627542e+00 210 149 164
2.063450e+00 4.810738e-01 -6.194957e+00 124 82 37
-3.304410e-01 2.342464e-01 -4.645507e+00 224 163 173
2.373362e+00 4.524794e-01 -5.465128e+00 217 185 59
2.308202e+00 4.280964e-01 -5.529538e+00 217 189 124
6.917163e-01 9.003520e-02 -5.748099e+00 200 35 51
-7.140890e-01 -9.914549e-02 -5.001704e+00 251 253 253
1.131329e+00 -1.312484e-01 -5.294477e+00 206 142 144
2.137363e+00 -3.757892e-01 -6.035627e+00 229 197 56
2.137363e+00 -3.757892e-01 -6.035627e+00 229 197 56
1.843608e+00 -6.965970e-01 -6.359502e+00 193 138 145
2.377351e+00 -4.867261e-01 -5.365103e+00 221 198 215
2.377836e+00 -4.867841e-01 -5.365755e+00 221 198 215
2.053614e+00 -7.515810e-01 -6.228981e+00 217 191 83
2.088120e+00 -7.383937e-01 -6.150764e+00 214 191 78
2.066224e+00 -8.590063e-01 -6.196377e+00 212 189 69
1.924953e+00 -2.298263e+00 -1.169208e+01 51 42 44
1.999839e+00 -2.322490e+00 -1.154298e+01 62 46 53
-1.207393e+00 -2.796186e+00 -1.269547e+01 74 42 54
2.096495e+00 -2.299203e+00 -1.103868e+01 65 54 68
1.167500e+00 -3.389979e+00 -1.404535e+01 40 33 43
1.234705e+00 -3.425610e+00 -1.369197e+01 39 34 40
1.538719e+00 -3.516700e+00 -1.281735e+01 47 42 54
2.085259e+00 -3.148989e+00 -1.142433e+01 55 49 56
2.085259e+00 -3.148989e+00 -1.142433e+01 55 49 56
1.994933e+00 -3.240170e+00 -1.161777e+01 56 47 53
1.386947e+00 -4.052023e+00 -1.359624e+01 43 37 42
2.632317e+00 -2.762628e+00 -9.726239e+00 60 46 62
2.471618e+00 -3.217320e+00 -1.031540e+01 97 90 106
1.742729e+00 -4.357872e+00 -1.265593e+01 41 35 45
5.694546e-01 1.585291e+00 -5.824173e+00 155 16 33
2.188254e+00 1.569121e+00 -5.803982e+00 191 165 78
2.192301e-01 1.227017e+00 -5.614713e+00 157 17 29
1.527345e+00 1.230354e+00 -5.293846e+00 69 31 28
1.527345e+00 1.230354e+00 -5.293846e+00 69 31 28
-8.851768e-01 7.571071e-01 -4.571071e+00 133 74 96
-7.855243e-01 7.579778e-01 -4.561643e+00 226 167 179
-7.562567e-01 7.598336e-01 -4.558355e+00 224 166 176
-7.974198e-01 7.025278e-01 -4.567869e+00 226 164 177
-7.546242e-01 6.825518e-01 -4.582308e+00 226 155 169
-5.861885e-01 6.841135e-01 -4.563007e+00 233 177 193
-1.232135e-02 6.120301e-01 -5.381480e+00 108 10 22
9.066081e-01 6.084879e-01 -5.481767e+00 104 12 15
2.126011e+00 5.927821e-01 -6.141566e+00 194 162 102
1.422187e+00 4.505259e-01 -5.789965e+00 120 11 13
6.689575e-01 2.316281e-01 -5.614031e+00 114 5 13
9.498399e-01 2.526304e-01 -5.715323e+00 199 31 48
7.285337e-01 2.042821e-01 -5.633652e+00 110 14 20
1.093463e+00 1.440285e-01 -5.527670e+00 171 100 114
1.207802e+00 1.381624e-01 -5.479519e+00 94 36 40
9.475558e-01 3.147626e-02 -5.573489e+00 66 13 21
9.553438e-01 2.766961e-02 -5.462523e+00 170 108 123
5.706352e-01 -2.511241e-01 -5.641823e+00 188 32 46
1.099713e+00 -2.225524e-01 -5.319851e+00 220 155 163
1.992704e+00 -2.122116e+00 -1.144618e+01 54 41 42
1.483255e+00 -2.566597e+00 -1.236643e+01 110 83 65
1.528982e+00 -2.966886e+00 -1.298244e+01 60 47 59
1.719605e+00 -3.688055e+00 -1.254472e+01 10 10 12
1.713520e+00 -3.675655e+00 -1.250716e+01 10 10 12
2.148899e+00 -3.228937e+00 -1.121637e+01 52 41 50
7.288673e-01 1.644798e+00 -5.741934e+00 176 20 40
2.288991e+00 1.484894e+00 -5.506506e+00 199 144 53
2.288991e+00 1.484894e+00 -5.506506e+00 199 144 53
9.025806e-01 1.094387e+00 -5.659815e+00 103 3 5
-7.556230e-01 5.969938e-01 -4.489377e+00 179 225 255
-8.192081e-01 4.876548e-01 -4.610471e+00 181 230 255
-4.675520e-01 5.053533e-01 -4.652676e+00 235 181 195
1.815811e-01 5.819455e-01 -5.372157e+00 82 11 26
1.026053e+00 6.549855e-01 -5.483036e+00 44 10 8
-3.534846e-01 3.903655e-01 -4.604950e+00 209 148 163
-3.751024e-01 3.459568e-01 -4.613826e+00 156 99 112
2.339195e+00 4.867438e-01 -5.454520e+00 217 189 124
9.500062e-01 1.963282e-01 -5.667608e+00 97 4 5
2.117249e+00 -2.406243e-01 -6.093194e+00 223 187 47
1.966336e+00 -7.638041e-01 -6.402963e+00 214 187 67
2.031659e+00 -1.076858e+00 -6.243998e+00 216 190 68
2.071150e+00 -2.453065e+00 -1.135248e+01 95 85 102
2.599741e+00 -3.089977e+00 -9.848992e+00 53 42 52
2.334726e+00 -3.555529e+00 -1.072904e+01 37 33 48
1.199479e-01 1.321945e+00 -5.746144e+00 93 2 5
2.253695e+00 1.552043e+00 -5.521438e+00 194 169 114
3.089367e-01 1.220247e+00 -5.578581e+00 163 18 28
4.394464e-01 1.047950e+00 -5.534330e+00 171 150 172
2.177683e-01 6.483285e-01 -5.386912e+00 218 203 220
-4.538200e-01 4.659432e-01 -4.660169e+00 107 54 70
8.299149e-01 5.671544e-01 -5.485926e+00 95 0 2
-6.883170e-01 2.920060e-01 -4.618934e+00 208 146 165
9.852207e-01 9.603844e-02 -5.550129e+00 73 5 8
2.274948e+00 -4.459211e-02 -5.706680e+00 219 194 130
2.222773e+00 -9.993091e-01 -5.816266e+00 204 197 104
1.002443e-01 1.037286e+00 -5.597378e+00 91 0 1
4.917345e-01 9.658600e-01 -5.530477e+00 163 18 29
2.209431e+00 9.017760e-01 -5.895051e+00 214 179 57
4.032899e-01 5.007392e-01 -5.390800e+00 70 6 6
1.336736e+00 5.995887e-01 -5.729659e+00 164 21 25
-9.651042e-01 2.462029e-01 -4.817161e+00 244 193 206
3.410507e-01 -3.135311e-02 -5.850667e+00 197 32 55
-7.232211e-01 4.182153e-01 -4.637125e+00 186 201 240
9.909061e-01 5.743570e-01 -5.486739e+00 212 193 208
9.909061e-01 5.743570e-01 -5.486739e+00 212 193 208
1.289524e+00 2.412749e-01 -5.529753e+00 188 119 132
1.029916e+00 4.196488e-02 -5.476564e+00 180 116 131
1.194506e+00 -1.581264e-01 -5.226924e+00 212 144 156
-7.784918e-01 6.367241e-01 -4.610172e+00 192 206 241
-5.986603e-01 3.680749e-01 -4.670948e+00 200 140 158
1.230388e-01 3.760783e-01 -5.481667e+00 152 22 32
8.665986e-01 1.024391e-01 -5.617897e+00 210 178 197
-7.126367e-01 -1.559405e-01 -5.020936e+00 23 24 29
-7.378269e-01 5.342628e-01 -4.587226e+00 20 27 44
-7.378269e-01 5.342628e-01 -4.587226e+00 20 27 44
-7.364085e-01 5.348644e-01 -4.589013e+00 20 27 44
-1.679027e+00 3.438527e+00 -1.063928e+01 97 44 18
-3.399679e+00 3.835459e+00 -1.175317e+01 143 85 86
-4.908326e+00 3.762401e+00 -1.149789e+01 128 70 58
-4.908326e+00 3.762401e+00 -1.149789e+01 128 70 58
-4.724315e+00 3.730363e+00 -1.143718e+01 135 75 58
-5.303020e+00 3.685548e+00 -1.130162e+01 111 38 15
-5.303020e+00 3.685548e+00 -1.130162e+01 111 38 15
-4.754595e+00 3.697597e+00 -1.150033e+01 125 48 26
-5.363900e+00 3.664421e+00 -1.137823e+01 118 62 55
-5.363900e+00 3.664421e+00 -1.137823e+01 118 62 55
-4.762276e+00 3.641968e+00 -1.145760e+01 135 72 66
-4.917216e+00 3.604335e+00 -1.145387e+01 123 47 25
-4.896259e+00 3.557945e+00 -1.128843e+01 123 46 20
-4.896259e+00 3.557945e+00 -1.128843e+01 123 46 20
-3.673752e+00 3.612388e+00 -1.169376e+01 132 53 29
-5.384774e+00 3.588060e+00 -1.146225e+01 123 70 69
-5.384774e+00 3.588060e+00 -1.146225e+01 123 70 69
-4.989960e+00 3.539208e+00 -1.138643e+01 129 71 70
-3.217121e+00 3.570587e+00 -1.179639e+01 141 90 81
-3.814322e+00 3.568380e+00 -1.182610e+01 130 56 28
-3.715298e+00 3.543211e+00 -1.174603e+01 129 58 43
-5.353685e+00 3.458105e+00 -1.137961e+01 125 72 64
-5.188394e+00 3.459881e+00 -1.141845e+01 128 72 58
-5.188394e+00 3.459881e+00 -1.141845e+01 128 72 58
1.854910e+00 1.930171e+00 -6.595825e+00 101 76 44
2.308154e+00 1.604515e+00 -5.443939e+00 195 164 83
2.308154e+00 1.604515e+00 -5.443939e+00 195 164 83
-3.785918e+00 3.460020e+00 -1.176413e+01 136 56 30
-3.785918e+00 3.460020e+00 -1.176413e+01 136 56 30
-3.792586e+00 3.394771e+00 -1.165930e+01 143 79 73
-1.364143e+00 2.957880e+00 -1.126560e+01 70 31 17
1.417024e+00 1.401943e+00 -5.367256e+00 148 108 118
2.264910e+00 1.394095e+00 -5.551852e+00 199 146 52
1.784053e-01 1.399973e+00 -5.731530e+00 157 20 29
-8.544515e-01 2.246730e+00 -9.674897e+00 35 26 28
4.247547e-01 1.056246e+00 -5.532256e+00 225 194 213
-6.768493e-01 8.709862e-01 -4.583071e+00 207 155 167
-5.562710e-01 8.395620e-01 -4.607362e+00 196 145 161
-8.249029e-01 8.042363e-01 -4.580070e+00 192 143 161
-7.021293e-01 8.025663e-01 -4.571411e+00 216 161 173
7.909857e-02 9.403350e-01 -5.581851e+00 157 16 22
4.165381e-01 9.180557e-01 -5.515997e+00 197 134 154
-6.047513e-01 7.330249e-01 -4.562021e+00 146 87 106
-7.558522e-02 7.976515e-01 -5.435251e+00 120 11 14
1.999325e+00 8.445544e-01 -5.748316e+00 172 117 124
-6.068372e-01 6.670307e-01 -4.557396e+00 216 151 165
1.451803e+00 7.971452e-01 -5.729533e+00 132 12 11
-4.962153e-01 6.468351e-01 -4.590278e+00 235 171 178
-8.857688e-01 5.971367e-01 -4.557796e+00 239 176 188
-3.383922e-01 5.556712e-01 -4.717151e+00 202 154 165
6.867302e-02 5.806887e-01 -5.347476e+00 193 170 185
-3.788624e-01 4.347973e-01 -4.622684e+00 177 118 132
2.078613e+00 5.499164e-01 -6.170145e+00 138 85 16
-3.845914e-01 4.128331e-01 -4.618368e+00 187 133 147
-8.256260e-01 2.863543e-01 -4.664653e+00 217 155 166
-3.770399e-01 2.785094e-01 -4.628130e+00 216 163 174
2.412841e+00 -1.237117e-01 -5.291798e+00 228 196 207
2.151169e+00 -1.752799e-01 -6.017578e+00 174 144 32
5.153996e-01 -1.730944e-01 -5.900276e+00 186 32 41
2.018613e+00 -2.308435e-01 -6.056411e+00 179 127 103
1.007164e+00 -2.809422e-01 -5.344125e+00 207 143 156
2.378064e+00 -3.943663e-01 -5.372369e+00 230 189 193
2.107145e+00 -5.033580e-01 -6.118570e+00 177 147 42
2.122636e+00 -1.982741e+00 -1.101205e+01 91 79 87
2.122636e+00 -1.982741e+00 -1.101205e+01 91 79 87
2.259388e+00 -1.991411e+00 -1.075680e+01 71 60 79
2.218244e+00 -9.931532e-01 -5.804419e+00 197 196 105
2.085529e+00 -2.176998e+00 -1.128794e+01 68 55 68
2.204839e+00 -1.662473e+00 -8.338144e+00 177 164 132
1.324048e+00 -2.958655e+00 -1.371910e+01 45 36 39
1.333240e+00 -2.978409e+00 -1.353009e+01 64 56 68
1.895046e+00 -2.602729e+00 -1.195710e+01 60 48 58
2.398551e+00 -2.367411e+00 -1.044834e+01 101 91 104
2.338693e+00 -2.499703e+00 -1.051101e+01 64 53 67
2.338693e+00 -2.499703e+00 -1.051101e+01 64 53 67
1.128169e+00 -3.596263e+00 -1.435783e+01 32 27 34
1.807519e+00 -3.175621e+00 -1.228992e+01 76 72 86
1.925941e+00 -3.028550e+00 -1.178899e+01 89 85 100
2.376447e+00 -2.817353e+00 -1.041836e+01 57 46 59
1.507044e+00 -3.660792e+00 -1.322258e+01 58 54 67
1.796300e+00 -3.440073e+00 -1.231211e+01 44 36 48
2.048443e+00 -3.234070e+00 -1.158525e+01 91 78 87
2.194820e+00 -3.103822e+00 -1.112469e+01 54 48 58
2.576643e+00 -2.717639e+00 -9.829872e+00 46 35 44
1.195264e+00 -4.171136e+00 -1.435411e+01 42 33 36
1.928829e+00 -3.446693e+00 -1.185684e+01 52 47 69
2.516783e+00 -2.924542e+00 -1.007904e+01 79 70 88
2.746112e+00 -2.878539e+00 -9.442880e+00 118 109 127
2.569257e+00 -3.152810e+00 -9.920176e+00 91 78 88
2.883856e+00 -2.872758e+00 -8.959738e+00 56 47 63
1.564660e+00 -4.344415e+00 -1.312694e+01 45 43 54
2.177440e+00 -3.679011e+00 -1.099913e+01 88 85 102
9.557289e-01 -5.162486e+00 -1.473343e+01 48 48 58
2.193585e+00 -3.802512e+00 -1.105911e+01 89 88 105
1.448824e+00 -4.710649e+00 -1.347385e+01 21 20 25
-3.809032e+00 3.852891e+00 -1.171910e+01 147 93 87
-5.208316e+00 3.685165e+00 -1.132014e+01 115 40 24
2.282965e+00 1.621410e+00 -5.491676e+00 197 170 94
6.568644e-01 1.597461e+00 -5.793008e+00 176 23 34
-1.418879e+00 2.989532e+00 -1.113046e+01 72 24 13
7.430813e-01 1.472005e+00 -5.796096e+00 118 1 4
1.196439e+00 1.402959e+00 -5.731600e+00 186 135 149
-7.464430e-01 8.186077e-01 -4.609287e+00 212 154 170
2.917274e-02 9.839594e-01 -5.653806e+00 76 1 0
-3.475820e-01 7.613184e-01 -4.734425e+00 50 20 17
-5.247326e-01 7.428196e-01 -4.599255e+00 228 163 173
2.252957e+00 8.940109e-01 -5.658113e+00 215 184 100
1.151096e-01 8.276770e-01 -5.503093e+00 184 28 41
-5.443491e-01 6.708112e-01 -4.571962e+00 175 117 131
-4.821548e-01 6.226588e-01 -4.606752e+00 237 174 184
5.394443e-02 7.032967e-01 -5.402716e+00 157 20 33
2.163904e-01 6.913916e-01 -5.394813e+00 71 5 13
4.176299e-01 6.479605e-01 -5.370330e+00 243 214 220
6.635835e-01 6.483422e-01 -5.470720e+00 167 20 29
2.079034e-01 6.060453e-01 -5.357677e+00 75 20 46
2.322659e+00 6.289084e-01 -5.535885e+00 211 158 64
-6.327605e-01 4.829544e-01 -4.603685e+00 183 160 191
-3.489124e-01 4.214317e-01 -4.647161e+00 189 126 142
9.381328e-02 3.959575e-01 -5.474956e+00 211 43 71
-5.243414e-01 3.226019e-01 -4.565876e+00 240 184 194
-4.873233e-01 2.837761e-01 -4.590062e+00 240 183 198
2.033951e+00 3.202928e-01 -6.294001e+00 175 140 44
-3.767776e-01 2.376786e-01 -4.618374e+00 212 159 172
7.689558e-01 2.266866e-01 -5.750897e+00 209 36 57
7.978077e-01 2.243722e-01 -5.704302e+00 214 37 60
1.468091e+00 8.598380e-02 -5.249547e+00 207 146 155
2.406871e+00 -1.611089e-01 -5.302246e+00 234 194 197
2.066887e+00 -2.374417e-01 -6.095357e+00 120 75 16
1.232419e+00 -1.869333e-01 -5.229362e+00 217 154 158
2.403659e+00 -2.093142e-01 -5.256881e+00 231 191 211
2.089558e+00 -2.726765e-01 -6.086472e+00 97 62 2
1.231102e+00 -2.144777e-01 -5.243043e+00 188 125 145
5.967776e-01 -2.743995e-01 -5.584250e+00 185 30 48
2.391055e+00 -2.759438e-01 -5.337292e+00 227 195 196
1.962088e+00 -4.621909e-01 -6.396550e+00 228 192 72
2.373074e+00 -4.325724e-01 -5.391002e+00 231 184 196
2.373406e+00 -5.097868e-01 -5.418267e+00 224 69 105
2.218681e+00 -1.890120e+00 -8.300311e+00 113 98 79
2.356048e+00 -2.001417e+00 -8.002728e+00 188 178 144
1.603938e+00 -3.451164e+00 -1.289071e+01 88 85 104
2.001962e+00 -3.255990e+00 -1.165913e+01 56 47 53
2.698576e+00 -2.648150e+00 -9.491667e+00 58 41 44
2.698576e+00 -2.648150e+00 -9.491667e+00 58 41 44
9.590163e-01 -4.373066e+00 -1.487332e+01 10 10 12
2.120202e+00 -3.441693e+00 -1.123592e+01 84 78 96
-2.240364e+00 -7.115145e+00 -2.079884e+01 80 73 88
2.613570e+00 -3.138072e+00 -9.671573e+00 117 111 134
1.551260e+00 -4.498515e+00 -1.312188e+01 38 35 48
1.551260e+00 -4.498515e+00 -1.312188e+01 38 35 48
-2.191850e+00 -7.638161e+00 -2.136094e+01 55 53 69
-3.691063e+00 3.852652e+00 -1.157017e+01 138 48 24
3.199148e-01 1.658197e+00 -5.766744e+00 115 8 12
2.130230e+00 1.602294e+00 -5.941970e+00 181 130 43
3.768348e-01 1.501310e+00 -5.747094e+00 129 2 6
2.103869e+00 1.588354e+00 -5.972805e+00 173 139 72
-5.458560e-01 2.351151e+00 -9.628384e+00 12 10 10
1.188183e+00 1.074436e+00 -5.172294e+00 185 131 143
1.224409e+00 1.204534e+00 -5.872732e+00 132 11 16
1.273040e+00 1.109962e+00 -5.826291e+00 174 24 37
1.040750e-02 9.517368e-01 -5.619491e+00 115 11 13
-8.638644e-01 7.318299e-01 -4.561494e+00 229 167 181
1.855571e-01 8.147307e-01 -5.498946e+00 181 25 39
-6.634777e-01 6.834216e-01 -4.549190e+00 235 173 186
-6.966736e-01 6.661788e-01 -4.572159e+00 226 155 168
1.141366e-01 7.657879e-01 -5.485023e+00 113 3 6
-5.066054e-01 6.280836e-01 -4.585078e+00 170 104 125
4.775694e-01 7.017701e-01 -5.360589e+00 242 226 228
3.427612e-01 6.860191e-01 -5.305501e+00 218 198 209
-6.347123e-01 5.939630e-01 -4.624138e+00 246 229 240
-4.827897e-01 5.822952e-01 -4.601656e+00 189 126 143
-4.827897e-01 5.822952e-01 -4.601656e+00 189 126 143
1.428409e+00 7.092754e-01 -5.757946e+00 163 24 31
-1.991379e-02 6.449194e-01 -5.373009e+00 210 35 60
1.182648e+00 6.407001e-01 -5.610034e+00 148 18 24
1.407338e+00 6.386132e-01 -5.736543e+00 162 24 28
-3.894784e-01 5.203016e-01 -4.667869e+00 226 170 182
4.120224e-01 5.653302e-01 -5.425767e+00 158 25 44
1.944826e+00 6.003326e-01 -6.234529e+00 128 70 63
-2.771740e-01 4.489623e-01 -4.655628e+00 207 154 169
-7.838221e-01 4.200488e-01 -4.584637e+00 161 178 219
-2.641478e-01 3.879314e-01 -4.714518e+00 176 116 134
5.443611e-01 2.920190e-01 -5.635610e+00 222 40 64
1.181148e+00 2.904019e-01 -5.735958e+00 185 31 43
5.136232e-01 2.589762e-01 -5.621536e+00 125 4 14
1.123906e+00 6.444816e-02 -5.390017e+00 184 123 138
-4.578089e-01 6.942941e-02 -4.635793e+00 242 194 208
-5.877771e-01 3.276945e-02 -4.626300e+00 249 199 210
-4.218197e-01 -1.222883e-02 -4.777340e+00 228 179 190
-8.418252e-01 -6.650115e-02 -4.972531e+00 230 162 175
5.626221e-01 -1.673864e-01 -5.737756e+00 173 27 36
2.035080e+00 -2.025938e-01 -6.080392e+00 113 69 10
7.366835e-01 -1.932698e-01 -5.465058e+00 190 29 45
7.713813e-01 -3.257478e-01 -5.480951e+00 196 30 48
1.979621e+00 -7.424124e-01 -6.409250e+00 219 187 72
1.824763e+00 -1.025347e+00 -6.675869e+00 204 181 69
1.177053e+00 -2.286394e+00 -1.220152e+01 121 95 72
1.120218e-01 -2.582804e+00 -1.241258e+01 107 80 72
1.609416e+00 -2.763476e+00 -1.262820e+01 47 39 44
1.183921e+00 -3.151731e+00 -1.401197e+01 44 38 47
-4.884492e-01 -3.109274e+00 -1.314746e+01 106 82 85
-1.509234e+00 -3.271964e+00 -1.348838e+01 85 77 89
1.923011e+00 -3.280532e+00 -1.188792e+01 51 46 60
2.442977e+00 -2.886026e+00 -1.030213e+01 60 52 63
2.442977e+00 -2.886026e+00 -1.030213e+01 60 52 63
2.628333e+00 -2.756154e+00 -9.712350e+00 60 46 62
5.812550e-01 -4.154793e+00 -1.399809e+01 12 12 12
2.762570e+00 -2.740230e+00 -9.232398e+00 56 44 54
6.944554e-01 -4.456615e+00 -1.446977e+01 10 10 10
6.944554e-01 -4.456615e+00 -1.446977e+01 10 10 10
2.285392e+00 -3.833032e+00 -1.088134e+01 84 79 98
-3.124160e+00 3.571791e+00 -1.182601e+01 136 51 17
-3.124160e+00 3.571791e+00 -1.182601e+01 136 51 17
4.280124e-01 1.501707e+00 -5.793467e+00 124 3 10
5.655679e-01 1.468245e+00 -5.709471e+00 140 8 15
2.139445e+00 1.547893e+00 -5.920651e+00 188 163 106
1.411299e+00 1.328791e+00 -5.308234e+00 127 84 93
-8.260062e-01 7.756281e-01 -4.554165e+00 152 97 120
-6.941098e-01 7.490928e-01 -4.550467e+00 224 165 176
1.352288e+00 9.060726e-01 -5.728996e+00 130 11 17
1.048741e+00 7.050776e-01 -5.585508e+00 189 32 43
2.950128e-01 6.173844e-01 -5.378956e+00 161 131 139
-2.725000e-01 3.337849e-01 -4.680827e+00 189 128 143
3.745511e-01 -2.215313e-01 -6.031239e+00 163 22 33
5.328499e-01 -2.279346e-01 -5.751376e+00 178 28 43
5.524485e-01 -1.894111e+00 -1.229681e+01 109 86 68
2.018924e+00 -1.090750e+00 -6.219838e+00 212 187 63
2.018924e+00 -1.090750e+00 -6.219838e+00 212 187 63
1.357930e+00 -2.525872e+00 -1.241149e+01 17 29 48
2.211888e+00 -1.814832e+00 -8.330759e+00 178 170 139
2.142603e+00 -3.219026e+00 -1.118454e+01 52 41 50
2.667407e+00 -3.068154e+00 -1.006942e+01 98 97 121
2.591173e+00 -3.078184e+00 -9.815142e+00 53 42 52
-1.739889e+00 3.120537e+00 -1.119391e+01 95 48 19
6.177264e-01 1.611607e+00 -5.822626e+00 64 2 0
2.274102e+00 1.342972e+00 -5.547232e+00 198 170 98
8.262591e-01 9.244955e-01 -5.598223e+00 151 15 29
-1.044040e-01 7.305295e-01 -5.380369e+00 151 13 29
2.037062e+00 7.530937e-01 -5.906684e+00 196 141 142
2.308439e+00 6.555434e-01 -5.563023e+00 214 185 121
-8.569734e-01 4.194701e-01 -4.639758e+00 241 190 207
2.113378e+00 4.728757e-01 -6.190804e+00 188 146 42
-7.844712e-01 1.774827e-01 -4.662018e+00 237 179 193
2.896929e-01 8.683684e-02 -5.980926e+00 207 30 52
2.394600e+00 -1.323779e-01 -5.343110e+00 224 38 63
4.190659e-01 -1.767610e-01 -5.936842e+00 206 32 56
2.412361e+00 -2.008627e-01 -5.304456e+00 227 178 194
2.398074e+00 -2.674863e-01 -5.305495e+00 222 182 193
2.398074e+00 -2.674863e-01 -5.305495e+00 222 182 193
1.989852e+00 -4.115159e-01 -6.095517e+00 192 140 152
1.824574e+00 -2.142418e+00 -1.200563e+01 90 77 87
4.604973e-01 -3.244920e+00 -1.304126e+01 105 80 64
2.321747e+00 -1.907922e+00 -8.058828e+00 188 174 148
2.894822e+00 -2.783536e+00 -8.942269e+00 60 49 63
1.414694e+00 -4.494461e+00 -1.353378e+01 68 65 75
2.338100e+00 -3.563832e+00 -1.074560e+01 37 33 48
8.037749e-01 -5.050471e+00 -1.484965e+01 42 42 51
-7.071076e-01 3.176342e+00 -1.019343e+01 27 17 13
2.271795e+00 1.658088e+00 -5.497385e+00 191 166 47
1.214572e+00 1.369759e+00 -5.439933e+00 134 93 110
-5.124341e-01 2.144516e+00 -9.638018e+00 26 22 21
8.294183e-01 7.709772e-01 -5.526287e+00 166 21 27
-4.274346e-02 6.891147e-01 -5.397096e+00 194 33 50
2.371100e+00 7.010659e-01 -5.432263e+00 214 159 61
-2.829168e-02 5.683148e-01 -5.450443e+00 221 210 224
1.481140e+00 5.648282e-01 -5.768192e+00 192 34 55
7.490884e-02 4.589906e-01 -5.481675e+00 228 55 94
7.490884e-02 4.589906e-01 -5.481675e+00 228 55 94
1.145238e+00 1.650626e-01 -5.517124e+00 189 122 139
6.618448e-01 -2.322354e+00 -1.212110e+01 24 23 26
1.110389e+00 -4.279883e+00 -1.464502e+01 50 44 52
2.266038e+00 -3.650629e+00 -1.098861e+01 74 72 95
4.461710e-02 1.107801e+00 -5.701518e+00 163 14 25
8.899345e-01 5.257517e-01 -5.435776e+00 212 196 202
8.899345e-01 5.257517e-01 -5.435776e+00 212 196 202
2.275770e+00 3.771469e-01 -5.577385e+00 217 190 121
-6.559416e-02 2.631063e-01 -5.569523e+00 230 212 228
-1.002201e+00 1.457384e-01 -4.863246e+00 232 158 173
2.142162e+00 -6.713778e-01 -6.205741e+00 208 183 76
2.137383e-01 -2.577067e+00 -1.230173e+01 101 75 60
-1.824285e+00 -2.836617e+00 -1.250516e+01 85 82 101
3.232043e-01 -3.464435e+00 -1.327530e+01 9 9 9
2.490051e+00 -2.728057e+00 -1.012147e+01 100 96 118
-2.943004e+00 3.078442e+00 -1.206043e+01 24 22 27
6.683251e-01 1.048807e+00 -5.554569e+00 128 9 12
1.367441e+00 3.510831e-01 -5.651696e+00 67 9 10
1.350445e-02 2.255546e-01 -5.659974e+00 199 31 51
1.747337e+00 -9.761805e-01 -6.896904e+00 200 180 66
-1.261496e+00 -2.917264e+00 -1.255930e+01 58 58 69
9.789675e-01 -3.774411e+00 -1.408329e+01 51 49 60
2.500049e+00 -3.349336e+00 -1.027835e+01 72 66 88
6.443634e-02 1.425738e+00 -5.829024e+00 160 15 26
2.343374e+00 5.817090e-01 -5.516540e+00 214 155 47
-2.362568e-03 3.312784e-01 -5.511577e+00 235 234 242
2.003255e+00 -5.357833e-01 -6.265003e+00 218 185 69
1.471630e+00 -4.208651e+00 -1.245247e+01 51 48 65
6.073521e-01 1.431801e+00 -5.779576e+00 146 12 20
5.607058e-01 1.261471e+00 -5.805082e+00 24 8 9
1.364080e+00 -4.068524e+00 -1.339332e+01 56 51 64
1.887923e+00 8.049275e-01 -6.195303e+00 192 132 142
4.370567e-02 5.320092e-01 -5.432366e+00 244 238 244
2.142243e+00 6.771137e-01 -5.926082e+00 217 166 52
9.677092e-01 -2.019061e-01 -5.416355e+00 215 147 158
2.177523e+00 1.876811e+00 -5.774150e+00 181 145 34
1.020357e-01 3.168138e+00 -1.032344e+01 6 5 5
3.484174e-01 3.142619e+00 -1.024771e+01 14 14 13
1.769041e+00 2.049174e+00 -6.814573e+00 113 88 22
2.101747e+00 1.749584e+00 -6.013032e+00 167 116 41
-1.499308e+00 3.112798e+00 -1.102953e+01 79 37 18
2.104413e+00 1.658751e+00 -5.910134e+00 178 125 35
9.120600e-01 1.563646e+00 -5.689188e+00 172 25 39
-2.380805e+00 3.007115e+00 -1.171658e+01 91 86 97
1.475759e-01 1.397658e+00 -5.815022e+00 160 19 28
-7.652511e-01 2.228846e+00 -9.647564e+00 21 17 17
1.561339e-01 1.115724e+00 -5.596801e+00 160 17 26
2.384006e+00 9.989684e-01 -5.399704e+00 203 166 88
5.389547e-01 9.191663e-01 -5.532019e+00 187 125 138
-1.056642e+00 6.811794e-01 -4.630612e+00 237 175 188
2.524022e-01 6.625445e-01 -5.360634e+00 187 157 175
4.051268e-01 6.086101e-01 -5.406225e+00 124 19 39
-4.246046e-01 4.679071e-01 -4.649855e+00 171 121 136
3.689998e-02 5.236074e-01 -5.451931e+00 231 215 227
-7.632907e-01 3.896621e-01 -4.634158e+00 234 192 216
2.349111e+00 1.332364e-01 -5.456002e+00 184 158 94
1.065976e+00 1.107852e-01 -5.483769e+00 135 60 70
1.046172e+00 5.279744e-02 -5.407518e+00 187 127 143
2.173178e+00 2.732843e-02 -5.947229e+00 167 136 16
2.173178e+00 2.732843e-02 -5.947229e+00 167 136 16
2.407381e+00 -1.405578e-01 -5.316165e+00 216 77 94
2.407381e+00 -1.405578e-01 -5.316165e+00 216 77 94
7.615531e-01 -1.526501e-01 -5.484286e+00 170 20 32
2.317803e+00 -1.815626e-01 -5.558226e+00 187 154 21
-6.541813e-01 -1.888017e-01 -4.960393e+00 163 189 229
2.153888e+00 -3.630940e-01 -5.996183e+00 168 134 18
2.398438e+00 -3.473533e-01 -5.359497e+00 208 95 124
2.383931e+00 -4.182447e-01 -5.367589e+00 211 98 137
2.376109e+00 -4.628260e-01 -5.376987e+00 210 105 133
2.376109e+00 -4.628260e-01 -5.376987e+00 210 105 133
2.394237e+00 -5.719267e-01 -5.346798e+00 241 146 70
1.898946e+00 -1.879189e+00 -1.188301e+01 66 52 59
-3.240646e-01 -2.193267e+00 -1.257081e+01 110 90 92
2.001601e+00 -1.976604e+00 -1.149105e+01 107 91 101
2.001601e+00 -1.976604e+00 -1.149105e+01 107 91 101
2.013058e+00 -2.181259e+00 -1.140903e+01 72 57 69
2.013058e+00 -2.181259e+00 -1.140903e+01 72 57 69
1.299349e+00 -2.577625e+00 -1.287085e+01 29 33 52
1.077801e+00 -3.018911e+00 -1.431909e+01 70 66 80
1.980254e+00 -2.409700e+00 -1.158213e+01 51 41 50
1.948288e+00 -2.715693e+00 -1.172830e+01 70 59 72
2.444712e+00 -2.373128e+00 -1.014281e+01 111 103 121
2.335811e+00 -2.736761e+00 -1.060603e+01 116 108 122
1.510184e+00 -3.527051e+00 -1.318631e+01 72 66 81
1.653775e+00 -3.392142e+00 -1.274189e+01 52 46 59
1.393841e+00 -3.616724e+00 -1.343880e+01 70 65 77
2.002249e+00 -3.129646e+00 -1.160060e+01 95 90 98
1.847144e+00 -3.335503e+00 -1.210018e+01 51 44 60
1.693031e+00 -3.608163e+00 -1.255824e+01 28 25 35
2.574138e+00 -2.875375e+00 -9.979585e+00 85 80 101
2.293754e+00 -3.206589e+00 -1.079639e+01 113 110 127
1.870821e+00 -3.640656e+00 -1.213505e+01 56 54 70
2.820078e+00 -2.780609e+00 -9.222599e+00 83 67 81
2.560314e+00 -3.071671e+00 -1.004975e+01 115 109 125
2.693282e+00 -2.951986e+00 -9.645426e+00 69 57 68
2.694973e+00 -2.980925e+00 -9.561246e+00 32 30 45
2.821685e+00 -2.879382e+00 -9.201823e+00 115 100 122
2.424209e+00 -3.367164e+00 -1.034469e+01 51 47 63
2.005848e+00 -3.891317e+00 -1.164893e+01 52 41 52
2.418871e+00 -3.485416e+00 -1.049556e+01 56 47 59
2.418871e+00 -3.485416e+00 -1.049556e+01 56 47 59
2.884341e+00 -3.027450e+00 -9.090492e+00 86 75 97
2.949427e+00 -2.949273e+00 -8.843215e+00 94 87 101
2.070956e+00 1.822413e+00 -6.068641e+00 158 107 35
2.059052e+00 1.839396e+00 -6.137930e+00 141 95 23
2.043575e+00 1.785952e+00 -6.049009e+00 140 107 47
7.000171e-01 1.583464e+00 -5.750064e+00 172 24 35
2.088671e+00 1.680080e+00 -6.026774e+00 144 115 63
2.291215e+00 1.356106e+00 -5.488741e+00 195 148 50
1.196596e-01 1.378953e+00 -5.798236e+00 171 24 35
4.591304e-01 1.360436e+00 -5.704088e+00 100 1 1
2.348800e+00 1.328677e+00 -5.414420e+00 202 178 111
2.362604e+00 1.228837e+00 -5.281301e+00 199 156 71
3.545166e-01 1.105976e+00 -5.527487e+00 175 23 37
3.592809e-01 9.915647e-01 -5.485046e+00 192 30 44
2.380620e+00 9.806208e-01 -5.350705e+00 215 181 109
2.269303e+00 8.833508e-01 -5.816298e+00 216 184 101
2.367355e+00 7.372434e-01 -5.413045e+00 219 185 122
2.382554e+00 7.180299e-01 -5.402254e+00 210 165 76
1.036856e+00 5.215983e-01 -5.452133e+00 205 40 72
-6.947311e-01 3.394314e-01 -4.644422e+00 246 184 198
-3.824845e-01 2.975988e-01 -4.609652e+00 224 173 182
2.211853e+00 -2.278389e-02 -5.856888e+00 209 174 47
2.361971e+00 -2.398369e-02 -5.418867e+00 221 190 75
1.100855e+00 -1.418608e-01 -5.291963e+00 198 127 145
7.118012e-01 -1.680713e-01 -5.527568e+00 150 15 21
1.297105e+00 -2.083179e-01 -5.227592e+00 186 128 142
2.132775e+00 -4.031660e-01 -6.042315e+00 226 194 61
2.059439e+00 -5.897805e-01 -6.218295e+00 161 170 128
2.096635e+00 -6.215790e-01 -6.149274e+00 165 138 43
1.664352e+00 -8.890529e-01 -7.064429e+00 199 176 75
2.154717e+00 -1.306969e+00 -5.906080e+00 202 152 45
2.481253e+00 -2.520032e+00 -1.009785e+01 67 55 65
1.353340e+00 -3.724326e+00 -1.371035e+01 42 35 44
1.982964e+00 -3.426227e+00 -1.178025e+01 87 81 96
2.168619e+00 -3.377233e+00 -1.115429e+01 48 44 54
2.532312e+00 -3.134491e+00 -1.009486e+01 66 50 61
2.267076e+00 -3.433327e+00 -1.091718e+01 57 46 60
2.732636e+00 -3.012020e+00 -9.448556e+00 53 44 58
2.639587e+00 -3.177050e+00 -9.774238e+00 117 111 134
2.846705e+00 -3.033899e+00 -9.124408e+00 123 117 137
2.461104e+00 -3.493006e+00 -1.035506e+01 94 91 109
2.590252e+00 -3.436582e+00 -9.959534e+00 105 99 117
2.409769e+00 1.655304e+00 -5.215275e+00 174 153 40
2.409769e+00 1.655304e+00 -5.215275e+00 174 153 40
-1.685701e+00 2.953485e+00 -1.144053e+01 26 14 15
2.184502e+00 1.497341e+00 -5.729296e+00 192 141 45
2.184502e+00 1.497341e+00 -5.729296e+00 192 141 45
2.279764e+00 1.386597e+00 -5.544922e+00 199 150 49
2.376410e+00 1.190095e+00 -5.280444e+00 204 178 120
-6.440607e-01 9.111218e-01 -4.626061e+00 157 124 143
1.215007e+00 9.725680e-01 -5.746301e+00 99 1 7
1.039498e+00 8.108625e-01 -5.583485e+00 161 20 28
-5.559903e-01 6.481695e-01 -4.571066e+00 221 165 178
1.054947e+00 6.100317e-01 -5.431476e+00 101 6 12
2.077807e+00 5.573915e-01 -6.162842e+00 147 94 24
2.371907e+00 3.979955e-01 -5.410867e+00 223 189 125
8.392871e-01 5.940498e-02 -5.621108e+00 223 198 214
1.110686e+00 -1.821841e-01 -5.314929e+00 204 133 146
5.836860e-01 -1.570010e+00 -1.232902e+01 117 88 63
1.766774e+00 -1.766937e+00 -1.220737e+01 76 54 63
2.338023e+00 -3.425521e+00 -1.064108e+01 57 53 69
2.338023e+00 -3.425521e+00 -1.064108e+01 57 53 69
2.130154e+00 1.754800e+00 -5.928909e+00 184 157 43
2.190812e+00 1.571261e+00 -5.809609e+00 191 165 78
-2.286931e+00 3.037009e+00 -1.160966e+01 19 17 20
4.639986e-01 1.462427e+00 -5.716003e+00 122 4 9
1.046228e-01 1.246672e+00 -5.706041e+00 139 13 17
1.116463e+00 1.299988e+00 -5.983279e+00 144 18 24
4.686842e-01 1.090541e+00 -5.529301e+00 169 21 31
-7.795886e-01 6.527273e-01 -4.591508e+00 243 231 243
8.417849e-01 7.051147e-01 -5.522776e+00 197 30 47
1.405640e+00 6.815530e-01 -5.770657e+00 104 9 6
8.993881e-01 -1.414481e-02 -5.552331e+00 51 9 18
2.161073e+00 -2.976071e+00 -1.111379e+01 51 48 60
2.792291e+00 -3.208403e+00 -9.367260e+00 72 50 58
1.060010e+00 7.640567e-01 -5.560459e+00 154 14 25
8.055933e-01 6.210036e-01 -5.488234e+00 183 26 44
8.055933e-01 6.210036e-01 -5.488234e+00 183 26 44
1.418847e+00 5.229984e-01 -5.777243e+00 118 9 11
1.362691e+00 4.831443e-01 -5.760020e+00 159 24 28
1.358876e+00 4.829373e-01 -5.743216e+00 159 24 28
8.019467e-01 4.047957e-02 -5.647536e+00 80 4 9
-2.664991e-01 -1.831039e+00 -1.236988e+01 130 110 117
1.797999e+00 -1.913387e+00 -1.214372e+01 69 55 55
5.115985e-01 -4.742516e+00 -1.406539e+01 4 4 4
1.694661e-01 9.940115e-01 -5.515110e+00 169 18 30
2.322508e-02 7.459915e-01 -5.392523e+00 91 1 7
1.664257e+00 -1.967013e+00 -1.234485e+01 115 90 66
2.366680e+00 1.304097e+00 -5.276200e+00 199 175 113
4.050181e-01 5.030171e-01 -5.368437e+00 72 3 2
7.715990e-01 1.224334e-01 -5.627206e+00 238 231 239
-6.504661e-01 5.730401e-01 -4.589419e+00 161 190 228
-8.105119e-01 -2.278060e-02 -4.888468e+00 242 188 200
7.101376e-01 3.090019e-01 -5.528450e+00 203 29 53
7.101376e-01 3.090019e-01 -5.528450e+00 203 29 53
2.268097e+00 -1.490103e+00 -5.664116e+00 215 38 66
4.861098e-01 3.137684e+00 -1.027421e+01 9 9 9
6.879621e-02 3.142501e+00 -1.052893e+01 8 8 8
1.965099e+00 2.193541e+00 -6.386997e+00 197 171 61
-6.117553e-02 2.244025e+00 -9.670369e+00 27 22 19
2.125529e+00 1.640000e+00 -5.943968e+00 218 182 97
8.402315e-01 1.514909e+00 -5.784295e+00 214 35 54
-2.076214e+00 2.083841e+00 -1.182495e+01 71 57 57
-2.816446e+00 2.186074e+00 -1.341959e+01 94 79 89
-2.710536e+00 1.881557e+00 -1.284927e+01 90 74 84
-2.832777e+00 1.845814e+00 -1.311090e+01 54 50 55
-8.884108e-01 8.405152e-01 -4.625172e+00 242 187 200
-9.099233e-01 8.024478e-01 -4.612648e+00 249 196 203
-9.243713e-01 7.498097e-01 -4.597308e+00 225 158 166
-8.123927e-01 7.448282e-01 -4.570527e+00 254 194 202
-6.384161e-01 7.477973e-01 -4.564766e+00 218 164 174
-6.402739e-01 6.978570e-01 -4.555262e+00 241 173 186
-5.612115e-01 6.923460e-01 -4.565742e+00 199 130 142
-9.143368e-01 6.419040e-01 -4.572247e+00 253 194 203
-8.341166e-01 6.317418e-01 -4.565091e+00 248 202 217
3.736255e-01 6.402084e-01 -5.345112e+00 155 106 126
2.338868e+00 6.833012e-01 -5.470778e+00 247 210 120
-8.576949e-01 5.037800e-01 -4.595919e+00 211 190 228
-5.048095e-01 5.219541e-01 -4.600076e+00 255 216 225
-5.585537e-01 4.131740e-01 -4.625623e+00 203 130 145
2.205535e+00 4.573796e-01 -5.467270e+00 242 192 94
-6.038058e-01 3.829041e-01 -4.611733e+00 218 145 162
-7.511783e-01 3.495243e-01 -4.634007e+00 248 196 208
-7.720823e-01 3.431507e-01 -4.645614e+00 229 165 184
-8.338463e-01 3.053684e-01 -4.681906e+00 253 203 211
-4.742681e-01 3.324995e-01 -4.566590e+00 248 202 215
-7.939083e-01 2.527319e-01 -4.669117e+00 253 193 205
-6.792999e-01 2.238653e-01 -4.582627e+00 255 203 216
-1.008992e+00 1.653278e-01 -4.875282e+00 255 201 209
5.783032e-01 1.293044e-01 -5.727704e+00 249 55 98
-8.069569e-01 1.830932e-01 -4.645639e+00 255 201 212
-3.701465e-01 1.987250e-01 -4.652647e+00 250 200 209
-7.622479e-01 1.446131e-01 -4.632712e+00 236 173 188
-3.717412e-01 1.338329e-01 -4.687427e+00 243 205 211
9.515361e-01 6.796912e-02 -5.567707e+00 203 153 169
-7.199746e-01 1.049653e-01 -4.643046e+00 251 208 218
-8.862768e-01 -9.880921e-03 -4.925487e+00 255 219 224
5.297332e-01 -1.378580e-01 -5.943084e+00 166 28 34
1.200313e+00 -3.176030e-02 -5.304093e+00 238 174 181
-8.042698e-01 -9.879152e-02 -4.969353e+00 118 141 191
-7.974076e-01 -1.425824e-01 -5.013309e+00 155 204 236
1.146756e+00 -2.429462e-01 -5.333684e+00 164 92 104
-7.613871e-01 -2.964936e-01 -5.193509e+00 237 189 200
1.046285e+00 -2.487277e-01 -5.320230e+00 213 141 155
2.147944e+00 -4.003869e-01 -6.005120e+00 206 172 45
1.911210e+00 -2.080923e+00 -1.176936e+01 74 49 49
2.067826e+00 -7.468888e-01 -6.184621e+00 196 170 45
2.067826e+00 -7.468888e-01 -6.184621e+00 196 170 45
2.103273e+00 -7.605851e-01 -6.124411e+00 200 172 44
2.252259e+00 -6.993444e-01 -5.750489e+00 239 211 71
2.010029e+00 -2.378896e+00 -1.147490e+01 118 101 112
2.308885e+00 -2.247161e+00 -1.066706e+01 141 131 142
1.668827e+00 -2.874690e+00 -1.270549e+01 74 61 72
2.220255e+00 -2.278805e+00 -1.073398e+01 97 81 93
1.238470e+00 -3.267412e+00 -1.369953e+01 74 63 73
1.360320e+00 -3.401536e+00 -1.358845e+01 71 60 76
1.990224e+00 -2.845225e+00 -1.162523e+01 90 83 99
1.990224e+00 -2.845225e+00 -1.162523e+01 90 83 99
2.021704e+00 -2.814420e+00 -1.148406e+01 132 121 135
1.280530e+00 -3.696248e+00 -1.377859e+01 104 94 108
1.280530e+00 -3.696248e+00 -1.377859e+01 104 94 108
2.316313e+00 -2.702737e+00 -1.064679e+01 80 68 82
2.461139e+00 -2.570822e+00 -1.016583e+01 128 115 128
2.281613e+00 -2.927402e+00 -1.075326e+01 76 68 83
1.838487e+00 -3.455456e+00 -1.215370e+01 78 64 77
2.249495e+00 -3.174917e+00 -1.088516e+01 116 111 129
2.141845e+00 -1.333602e+00 -5.898505e+00 231 180 51
2.545724e+00 -2.920685e+00 -1.000227e+01 140 131 151
1.771326e+00 -4.248408e+00 -1.246578e+01 106 103 119
2.834340e+00 -3.049663e+00 -9.215714e+00 105 97 120
-1.153572e+00 3.154343e+00 -1.112032e+01 80 33 9
-3.727030e+00 3.115857e+00 -1.243397e+01 124 114 131
6.787468e-01 2.865968e+00 -1.031506e+01 13 12 11
2.167817e+00 1.896284e+00 -5.715754e+00 216 173 52
2.167817e+00 1.896284e+00 -5.715754e+00 216 173 52
-6.688440e-01 2.139251e+00 -9.560618e+00 31 28 21
2.144701e+00 1.675953e+00 -5.859783e+00 223 187 110
2.311506e+00 1.572597e+00 -5.428920e+00 226 177 54
2.151628e+00 1.572350e+00 -5.885963e+00 217 170 66
2.163256e+00 1.577546e+00 -5.911203e+00 217 170 66
2.294936e+00 1.528273e+00 -5.498924e+00 223 180 77
5.569104e-02 9.245753e-01 -5.554914e+00 132 3 7
-1.020951e+00 6.850666e-01 -4.627295e+00 250 191 198
1.200937e+00 6.974630e-01 -5.568267e+00 216 40 62
1.249181e+00 7.000900e-01 -5.563978e+00 209 40 57
-5.841777e-01 6.042231e-01 -4.571987e+00 254 206 219
4.324502e-01 5.792814e-01 -5.344595e+00 249 53 103
-5.634578e-01 5.220205e-01 -4.585232e+00 255 208 220
-5.968450e-01 4.914855e-01 -4.557367e+00 252 200 208
2.106615e+00 4.799948e-01 -6.042051e+00 229 187 62
-6.488929e-01 3.602683e-01 -4.629483e+00 255 207 215
-7.716877e-01 3.219156e-01 -4.642478e+00 255 213 219
-8.080650e-01 3.087910e-01 -4.657922e+00 241 173 188
-8.494734e-01 2.841560e-01 -4.684373e+00 254 201 212
-9.967377e-01 2.397296e-01 -4.835084e+00 255 220 228
-7.052760e-01 2.502839e-01 -4.613435e+00 244 188 197
-1.104837e+00 1.371533e-01 -4.881247e+00 251 199 212
1.671097e+00 2.078580e-01 -5.262150e+00 198 148 84
-3.347172e-01 1.305587e-01 -4.703236e+00 252 212 219
4.714201e-01 -1.110612e-01 -5.929884e+00 223 38 59
5.029888e-01 -1.538084e-01 -5.888756e+00 211 37 60
1.225166e+00 -4.493747e-02 -5.309572e+00 156 83 90
6.694821e-01 -1.809270e-01 -5.556890e+00 171 20 27
2.419199e+00 -2.683269e-01 -5.311757e+00 252 217 234
2.124132e+00 -4.884445e-01 -6.093619e+00 246 218 83
2.039205e+00 -7.244508e-01 -6.259264e+00 179 192 148
2.039205e+00 -7.244508e-01 -6.259264e+00 179 192 148
1.903889e+00 -2.215215e+00 -1.185387e+01 82 63 67
2.260463e+00 -2.202247e+00 -1.076125e+01 152 150 170
2.208832e+00 -3.434188e+00 -1.105117e+01 85 72 86
2.917396e+00 -2.954876e+00 -8.897722e+00 83 71 88
-3.762428e-01 2.285961e+00 -9.660023e+00 33 24 19
-1.275373e+00 2.450397e+00 -1.113679e+01 56 34 31
-1.682337e-02 2.295352e+00 -9.724919e+00 42 29 23
2.179520e+00 1.847367e+00 -6.175036e+00 209 157 57
8.117786e-01 1.637931e+00 -5.695885e+00 171 22 33
2.169235e+00 1.729012e+00 -5.815823e+00 222 192 117
-1.716424e+00 2.086740e+00 -1.143689e+01 110 86 91
-2.534169e+00 2.096667e+00 -1.255514e+01 92 77 84
2.272869e+00 1.528116e+00 -5.521920e+00 229 203 130
2.253504e+00 1.506240e+00 -5.549655e+00 225 174 64
5.230106e-01 1.346116e+00 -5.757151e+00 182 29 36
-2.734343e+00 1.735055e+00 -1.278391e+01 88 72 81
1.790241e-01 1.190643e+00 -5.597772e+00 115 4 7
1.790241e-01 1.190643e+00 -5.597772e+00 115 4 7
1.048929e-01 9.131432e-01 -5.555332e+00 215 36 59
-7.472904e-01 7.912740e-01 -4.575526e+00 185 120 134
-8.131245e-02 7.666710e-01 -5.405095e+00 121 6 8
-8.616677e-01 6.749306e-01 -4.557882e+00 253 207 214
2.058577e+00 6.215784e-01 -6.184356e+00 208 171 108
-4.248907e-01 4.400438e-01 -4.615728e+00 149 91 108
2.014261e+00 3.065213e-01 -6.339679e+00 89 52 3
-8.699443e-01 3.052604e-01 -4.688132e+00 233 171 184
-1.022429e+00 1.831828e-01 -4.858164e+00 255 206 215
4.088193e-01 1.629837e-01 -5.610006e+00 236 58 108
-5.861192e-01 2.199158e-01 -4.557813e+00 254 216 224
9.060411e-01 2.169947e-02 -5.597180e+00 199 158 169
-9.855306e-01 2.306982e-02 -4.927517e+00 252 231 231
4.296928e-01 -2.550279e-01 -5.953357e+00 242 53 90
2.101036e+00 -4.734403e-01 -6.146627e+00 242 217 83
2.111151e+00 -5.308859e-01 -6.074224e+00 243 216 78
2.699284e+00 -2.851593e+00 -9.420561e+00 150 139 151
2.734160e+00 -2.888981e+00 -9.521223e+00 150 139 151
2.088500e+00 -3.730707e+00 -1.143511e+01 125 111 126
2.599472e+00 -3.298285e+00 -1.004970e+01 128 117 139
2.200628e-01 2.534580e+00 -9.836747e+00 23 19 18
6.088658e-01 1.600154e+00 -5.765782e+00 94 6 3
2.188510e+00 1.712262e+00 -5.737155e+00 221 192 94
8.556788e-01 1.577607e+00 -5.677437e+00 209 36 63
2.289519e+00 1.584852e+00 -5.467719e+00 231 171 56
2.263870e-01 1.337342e+00 -5.687550e+00 176 22 28
-8.796897e-01 7.248990e-01 -4.545567e+00 250 194 206
-5.223126e-01 7.066863e-01 -4.604090e+00 252 193 204
-9.859651e-01 6.341612e-01 -4.608705e+00 246 186 197
-9.159006e-01 5.806825e-01 -4.571617e+00 255 185 198
-8.039025e-01 5.786795e-01 -4.558722e+00 221 236 249
-5.180777e-01 5.913457e-01 -4.589077e+00 249 200 213
-8.863629e-01 5.564316e-01 -4.556728e+00 253 214 221
-1.053318e+00 5.033225e-01 -4.675291e+00 255 212 217
-6.167238e-01 5.073701e-01 -4.596887e+00 233 187 217
-8.950027e-01 4.658424e-01 -4.678436e+00 251 211 215
2.359051e+00 5.257465e-01 -5.407974e+00 247 190 62
-9.950108e-01 2.840928e-01 -4.762211e+00 253 191 202
8.201585e-01 1.727485e-01 -5.649985e+00 183 39 60
1.179420e+00 -2.126595e-01 -5.335138e+00 242 184 200
7.596190e-01 -2.222677e+00 -1.208961e+01 151 126 124
1.656815e+00 -3.915914e+00 -1.272248e+01 101 96 113
2.564409e+00 -1.412985e+00 -5.549944e+00 197 169 145
1.650683e-01 2.732795e+00 -1.008815e+01 37 28 26
6.174323e-01 1.679500e+00 -5.829218e+00 190 33 44
6.174323e-01 1.679500e+00 -5.829218e+00 190 33 44
-1.851347e+00 2.497120e+00 -1.263013e+01 76 59 65
2.299024e-01 1.178346e+00 -5.565063e+00 128 9 12
2.299024e-01 1.178346e+00 -5.565063e+00 128 9 12
-2.830620e+00 9.924416e-01 -1.261922e+01 117 95 105
9.062741e-01 8.437371e-01 -5.579217e+00 200 33 51
9.642685e-01 4.848714e-01 -5.483534e+00 182 33 66
-6.889120e-01 2.929144e-01 -4.602888e+00 226 160 169
-8.996888e-01 7.270289e-03 -4.887879e+00 252 217 221
-3.558663e-01 -7.074349e-02 -4.958667e+00 250 209 218
7.380588e-01 -4.437285e+00 -1.411740e+01 14 14 14
-1.166594e-02 2.436099e+00 -9.870033e+00 13 12 11
7.525907e-01 1.534193e+00 -5.746226e+00 223 41 66
-2.721838e+00 2.021211e+00 -1.306432e+01 95 79 89
2.918211e-01 8.036598e-01 -5.491494e+00 231 42 70
1.304332e+00 1.665487e-01 -5.440542e+00 133 25 23
2.280080e+00 1.275510e-01 -5.662637e+00 239 217 139
2.228743e+00 -1.002326e+00 -5.826257e+00 231 223 104
-4.569724e+00 -2.873835e-01 -1.757783e+01 141 133 148
-9.992248e-01 4.031340e-01 -4.754012e+00 250 208 217
1.314755e+00 4.212239e-01 -5.796625e+00 204 40 55
-3.391497e+00 3.454365e+00 -1.826984e+01 51 42 44
-2.405854e+00 1.652481e+00 -1.217198e+01 123 105 114
2.942633e-01 7.233338e-01 -5.406262e+00 71 3 8
-3.430209e-01 -2.059083e-01 -5.219933e+00 159 133 138
1.554091e+00 4.036989e-01 -5.893797e+00 205 40 50
5.083477e-01 1.056504e+00 -5.544226e+00 142 28 53
-1.005043e+00 7.759430e-01 -4.623918e+00 223 169 184
-6.530028e-01 7.244462e-01 -4.558583e+00 224 164 179
-6.530028e-01 7.244462e-01 -4.558583e+00 224 164 179
9.903182e-02 8.485218e-01 -5.521966e+00 175 25 40
-5.043413e-01 6.698248e-01 -4.596014e+00 236 170 182
2.395782e+00 7.435038e-01 -5.375172e+00 218 186 116
2.039484e+00 -3.317367e+00 -1.152578e+01 55 45 62
3.080336e-01 9.221020e-01 -5.499341e+00 170 20 31
1.964159e+00 -3.946952e+00 -1.183601e+01 71 67 87
4.797577e-01 3.031034e+00 -1.040881e+01 13 13 11
-6.733896e-02 2.244149e+00 -9.688969e+00 27 22 19
-5.838407e-01 2.140961e+00 -9.684790e+00 35 31 26
-1.428744e+00 2.252237e+00 -1.120544e+01 77 51 52
7.367490e-01 1.579937e+00 -5.739916e+00 202 33 55
-2.245749e+00 2.322937e+00 -1.276077e+01 79 64 69
-2.284509e+00 2.213278e+00 -1.267898e+01 79 65 72
-1.231324e-01 1.926716e+00 -9.599465e+00 27 25 20
-2.001974e+00 1.808557e+00 -1.150986e+01 98 77 87
1.222323e+00 1.271369e+00 -5.258810e+00 162 116 127
2.296918e+00 1.350957e+00 -5.484071e+00 228 179 57
2.296918e+00 1.350957e+00 -5.484071e+00 228 179 57
4.630869e-01 1.044001e+00 -5.537502e+00 221 200 223
4.228325e-01 1.030392e+00 -5.531997e+00 238 211 231
5.906809e-01 1.042909e+00 -5.549437e+00 162 28 49
4.703927e-01 9.066770e-01 -5.521307e+00 229 156 176
5.546777e-01 8.497763e-01 -5.516112e+00 223 192 208
5.546777e-01 8.497763e-01 -5.516112e+00 223 192 208
-9.127375e-01 6.726599e-01 -4.557015e+00 219 151 163
-6.070865e-01 6.679091e-01 -4.554010e+00 246 186 195
-8.699143e-01 4.827494e-01 -4.594557e+00 246 201 220
-5.150368e-01 3.611470e-01 -4.569832e+00 248 195 208
-7.614302e-01 1.450018e-01 -4.631290e+00 236 173 188
7.913059e-01 -1.336688e-01 -5.436233e+00 200 36 61
7.913059e-01 -1.336688e-01 -5.436233e+00 200 36 61
7.786551e-01 -1.620715e-01 -5.437364e+00 223 44 69
5.919106e-01 -2.217043e-01 -5.619712e+00 194 32 47
2.569220e+00 -3.316453e+00 -1.005680e+01 123 119 149
1.563985e+00 2.313756e+00 -7.336705e+00 114 95 82
1.563985e+00 2.313756e+00 -7.336705e+00 114 95 82
1.785816e+00 2.089555e+00 -6.736355e+00 102 69 19
1.799705e+00 1.960924e+00 -6.846472e+00 167 125 51
7.469581e-01 1.602766e+00 -5.746060e+00 168 15 27
-2.441073e+00 2.240931e+00 -1.296480e+01 84 72 76
2.281808e+00 1.567919e+00 -5.516560e+00 229 198 126
-5.560700e-01 1.845734e+00 -9.847593e+00 38 32 32
-5.913801e-01 1.677475e+00 -9.976628e+00 15 12 16
4.808717e-01 8.540521e-01 -5.526299e+00 222 198 216
2.327604e+00 7.098630e-01 -5.458785e+00 243 190 79
2.097482e+00 5.899128e-01 -6.130203e+00 217 185 116
